ncols        143
nrows        39
xllcorner    2547202
yllcorner    1149413
cellsize     3.000000000000
NODATA_value  590
654.25 655.066650390625 656 656.550018310546875 656.79998779296875 656.5999755859375 656 655.149993896484375 654.20001220703125 653.149993896484375 652.29998779296875 651.54998779296875 651 650.70001220703125 649.649993896484375 648.79998779296875 648.0999755859375 646.899993896484375 646.0999755859375 645.75 644.350006103515625 644 643.63334147135412877 643.25 643.024993896484375 642.600006103515625 642.25 641.5 641.100006103515625 640.449981689453125 640.29998779296875 639.899993896484375 639.600006103515625 639.70001220703125 639.79998779296875 639.75 638.899993896484375 638.25 638 637.86665852864587123 638.04998779296875 638.20001220703125 638.0999755859375 637.9000244140625 637.06667073567712123 636.29998779296875 590 635.73331705729162877 635.550018310546875 635.46665445963537877 635.399993896484375 635.300018310546875 635.399993896484375 590 635.25 635.20001220703125 635.0999755859375 634.9000244140625 634.949981689453125 635 634.9000244140625 634.79998779296875 634.75 634.600006103515625 634.300018310546875 634 633.95001220703125 633.70001220703125 633.350006103515625 632.70001220703125 632.100006103515625 632.0999755859375 632.79998779296875 633.5 634.399993896484375 636.0999755859375 637.25 638.20001220703125 638.54998779296875 639.0999755859375 639.29998779296875 639.800018310546875 641.29998779296875 642.09999593098962123 643.0999755859375 643.600006103515625 644.29998779296875 645.199981689453125 645.9000244140625 646.70001220703125 647.050018310546875 648.29998779296875 648.933349609375 650.5333251953125 651.95001220703125 653.399993896484375 654.550018310546875 655.5500030517578125 656.79998779296875 657.83331298828125 659.25 661.25 663.33335367838537877 664.5999755859375 666.1500244140625 668.66666666666662877 671.566650390625 675.29998779296875 677.76666259765625 679.83335367838537877 680.90000406901037877 682.29998779296875 683.20001220703125 682.95001220703125 682.06667073567712123 681.96665445963537877 681.79998779296875 682.25 685.4000091552734375 687.5 691.566650390625 695.36665852864587123 700.19999186197912877 704.90000406901037877 709 711.66668701171875 716.69999186197912877 720.600006103515625 722.76666259765625 722 721.79998779296875 721.199981689453125 720.800018310546875 720.699981689453125 720.45001220703125 720.5 720.29998779296875 719.649993896484375 719.5 719.29998779296875 719.25 719.100006103515625 719.20001220703125
653.4000244140625 653.54998779296875 654.25 655.5749969482421875 656.1500244140625 656 655.45001220703125 654.600006103515625 653.649993896484375 652.649993896484375 651.8249969482421875 651 650.4000091552734375 649.75 649.16666666666662877 648.399993896484375 647.475006103515625 646.5 645.66666666666662877 645.100006103515625 643.83333333333337123 643.5999755859375 643.0999755859375 642.649993896484375 642.4000244140625 642.20001220703125 641.566650390625 641.13334147135412877 640.649993896484375 640 639.63332112630212123 639.29998779296875 639 638.96665445963537877 639.20001220703125 639.149993896484375 638.79998779296875 637.76668294270837123 637.20001220703125 637.100006103515625 637.29998779296875 637.5 637.625 637.5 637 636.100006103515625 635.79998779296875 635.399993896484375 635.0999755859375 635.20001220703125 635.04998779296875 635 635 634.95001220703125 634.83333333333337123 634.9000244140625 634.699981689453125 634.54998779296875 634.5999755859375 634.5 634.350006103515625 634.25 634.16666666666662877 634 633.83333333333337123 633.4000244140625 633.5 633.2750091552734375 632.850006103515625 632.25 631.70001220703125 631.43332926432287877 631.449981689453125 632.32501220703125 633.25 634.3249969482421875 636.100006103515625 636.86665852864587123 636.79998779296875 637.56667073567712123 637.050018310546875 639.23333740234375 640.600006103515625 641.20001220703125 642.5999908447265625 643.1500244140625 643.6750030517578125 644.5 645.06667073567712123 646.16664632161462123 646.76666259765625 647.29998779296875 648.350006103515625 649.20001220703125 650.800018310546875 652.79998779296875 653.949981689453125 654.79998779296875 655.95001220703125 657.0999755859375 658.69999186197912877 660.100006103515625 661.5999755859375 663.9499969482421875 665.70001220703125 667.600006103515625 671.399993896484375 674.59999593098962123 676.449981689453125 677.75 679.4000244140625 680.20001220703125 681.8499908447265625 682.0999755859375 681.550018310546875 681.20001220703125 681.29998779296875 681.66666666666662877 683.9000244140625 686.76666259765625 690.850006103515625 695.0333251953125 700.40000406901037877 703 706.800018310546875 709.70001220703125 714.9666748046875 719.20001220703125 722.0999755859375 721.899993896484375 721.149993896484375 720.9000244140625 720.550018310546875 720.300018310546875 720.0999755859375 720 719.70001220703125 719.36665852864587123 719 718.95001220703125 719.04998779296875 718.9000244140625 590
652.800018310546875 653.0999755859375 653.600006103515625 654.20001220703125 654.75 655.20001220703125 655 654.100006103515625 653.0999755859375 652.20001220703125 651.29998779296875 650.5 649.79998779296875 649.29998779296875 648.79998779296875 647.8499755859375 646.9000244140625 646.1500244140625 645.149993896484375 644.29998779296875 643.350006103515625 642.95001220703125 642.59999593098962123 642 641.66666666666662877 641.79998779296875 641 640.4000244140625 640.03334554036462123 639.79998779296875 639.29998779296875 638.550018310546875 638.5 638.149993896484375 638.29998779296875 638.4000244140625 638.5 637.9000244140625 637.45001220703125 636.449981689453125 636.5 636.70001220703125 636.800018310546875 636.5999755859375 636.449981689453125 635.9000244140625 635.5999755859375 635.149993896484375 634.9000244140625 634.899993896484375 634.63332112630212123 634.600006103515625 634.5999755859375 634.5 634.550018310546875 634.5 634.25 634.125 634 634.0999755859375 634 633.9000244140625 633.79998779296875 633.63332112630212123 633.29998779296875 633 632.9000244140625 632.75 632.29998779296875 631.70001220703125 631 630.79998779296875 630.70001220703125 631.70001220703125 632.70001220703125 632.9000244140625 634.149993896484375 635.350006103515625 634.79998779296875 635.75 637.04998779296875 638.70001220703125 640.04998779296875 641.4000244140625 642 642.5 643.350006103515625 644.29998779296875 644.5 645.149993896484375 646.0999755859375 647.149993896484375 647.73333740234375 648.79998779296875 649.8499755859375 651.6750030517578125 653.149993896484375 653.9000091552734375 654.899993896484375 655.9250030517578125 657.4000244140625 659.350006103515625 661.300018310546875 662.79998779296875 663.63334147135412877 665.43332926432287877 669.0333251953125 671.6500244140625 674.899993896484375 676.399993896484375 677.86665852864587123 679.0333251953125 680.5999755859375 681.23331705729162877 681.25 680.75 680.4000244140625 681 682.26666259765625 685.5 689.73333740234375 692.53334554036462123 696.56667073567712123 699.100006103515625 703.7750091552734375 708.5 713.03334554036462123 718.3249969482421875 721.0999755859375 721.399993896484375 720.70001220703125 720.399993896484375 720.06667073567712123 719.9000244140625 719.70001220703125 719.4000244140625 719.20001220703125 718.80000813802087123 718.70001220703125 718.75 718.70001220703125 718.70001220703125 718.649993896484375
651.29998779296875 652.2249908447265625 653.25 653.36665852864587123 653.9666748046875 654.33333333333337123 654.36665852864587123 653.649993896484375 652.6000213623046875 651.699981689453125 650.7749786376953125 649.850006103515625 649.25 648.524993896484375 647.949981689453125 647.23333740234375 646.63334147135412877 645.850006103515625 645.29998779296875 644.13334147135412877 643.433349609375 642.29998779296875 642.20001220703125 641.399993896484375 641.0999755859375 640.850006103515625 640.4000091552734375 639.899993896484375 639.70001220703125 639.16666666666662877 638.649993896484375 638.16666666666662877 637.79998779296875 637.5999755859375 637.5 637.9000244140625 637.949981689453125 637.850006103515625 636.95001220703125 636.20001220703125 636.20001220703125 636.36665852864587123 636.350006103515625 636.20001220703125 636.100006103515625 635.649993896484375 635.399993896484375 634.79998779296875 634.5999755859375 634.5 634.199981689453125 634.0999755859375 634.25 634.100006103515625 633.949981689453125 633.949981689453125 633.79998779296875 633.850006103515625 633.75 633.649993896484375 633.600006103515625 633.70001220703125 633.33333333333337123 633.100006103515625 632.76666259765625 632.63334147135412877 632.45001220703125 632.20001220703125 631.89998372395837123 631.23333740234375 630.73331705729162877 630.399993896484375 630.66666666666662877 631.26668294270837123 631.850006103515625 632.63334147135412877 633.433349609375 633.649993896484375 634.16666666666662877 634.899993896484375 636.149993896484375 637.86665852864587123 639.0333251953125 640.29998779296875 640.9000244140625 641.90000406901037877 642.550018310546875 643.43332926432287877 643.76666259765625 644.300018310546875 645.23333740234375 646.0999755859375 647.25 648.199981689453125 649.4000244140625 650.9000244140625 652 653.149993896484375 654.20001220703125 655.1500244140625 656.399993896484375 658.125 660.199981689453125 661.66668701171875 663.0999755859375 664.29998779296875 666.8499755859375 671.40000406901037877 673.29998779296875 674.60001627604162877 676.5 678 680.149993896484375 680.0999755859375 680.699981689453125 680.449981689453125 680.29998779296875 680.4000244140625 682.100006103515625 685.149993896484375 687.050018310546875 690.5999755859375 693.350006103515625 697.5333251953125 701.23333740234375 706.70001220703125 711.69999186197912877 717.16666666666662877 720.36665852864587123 721.199981689453125 720.850006103515625 720.100006103515625 719.649993896484375 719.350006103515625 719.199981689453125 718.9666748046875 718.600006103515625 718.54998779296875 718.5999755859375 718.5999755859375 718.449981689453125 718.25 718.29998779296875
649 650.600006103515625 652.4000244140625 652.850006103515625 653.29998779296875 653.4000244140625 653.5999755859375 653.149993896484375 652.0999755859375 651.149993896484375 650.20001220703125 649.25 648.20001220703125 647.79998779296875 647.29998779296875 646.70001220703125 646.29998779296875 645.433349609375 644.70001220703125 644 643.050018310546875 642.20001220703125 641.433349609375 640.949981689453125 640.54998779296875 640.0999755859375 639.79998779296875 639.350006103515625 639.100006103515625 638.6500244140625 638.20001220703125 637.566650390625 637.29998779296875 636.90000406901037877 636.899993896484375 637.29998779296875 637.350006103515625 637.25 636.83333333333337123 636.79998779296875 636.100006103515625 635.899993896484375 635.9000244140625 636 635.75 635.3499755859375 634.83333333333337123 634.350006103515625 634.149993896484375 634.06667073567712123 633.80000813802087123 633.9000244140625 633.79998779296875 633.70001220703125 633.5 633.5 633.5 633.4000244140625 633.199981689453125 633 633.06667073567712123 632.79998779296875 632.70001220703125 632.5 632.4000244140625 632.20001220703125 632 631.79998779296875 631.350006103515625 630.9000244140625 630.25 630.20001220703125 630.5999755859375 631.050018310546875 631.70001220703125 632.149993896484375 632.70001220703125 633.13334147135412877 633.4000244140625 634.79998779296875 636.149993896484375 637.20001220703125 638.399993896484375 639.20001220703125 639.70001220703125 640.8499755859375 641.5 642.149993896484375 643 643.70001220703125 644.4000244140625 645.40000406901037877 645.95001220703125 647.5 648.23333740234375 649.59999593098962123 650.90000406901037877 652.20001220703125 653.30000813802087123 654.5 655.5 657.20001220703125 659.4000244140625 661.43332926432287877 662.933349609375 664.5 667.100006103515625 669.23333740234375 671.79998779296875 673.93332926432287877 675.3499755859375 676.850006103515625 678.5 679.3000030517578125 680.20001220703125 679.43332926432287877 679.5 679.86665852864587123 681.5 683.45001220703125 686.93332926432287877 690.4666748046875 693.800018310546875 696.26668294270837123 701.19999186197912877 705.59999593098962123 710.350006103515625 715.10001627604162877 719.3499755859375 720.79998779296875 720.26666259765625 719.800018310546875 719.29998779296875 718.95001220703125 718.70001220703125 718.4000244140625 718.20001220703125 718.29998779296875 718.0749969482421875 718.0999755859375 717.9000244140625 717.79998779296875 717.850006103515625
646.9000244140625 648.8249969482421875 650.95001220703125 651.8499908447265625 652.45001220703125 652.6500244140625 652.79998779296875 652.53334554036462123 651.9666748046875 650.90000406901037877 649.70001220703125 648.79998779296875 647.95001220703125 647.40000406901037877 646.96665445963537877 646.449981689453125 645.86665852864587123 645 644.23335774739587123 643.5 642.5999755859375 641.70001220703125 640.9000244140625 640.79998779296875 639.96665445963537877 639.66666666666662877 639.23333740234375 638.86665852864587123 638.29998779296875 638.100006103515625 637.70001220703125 637.16664632161462123 636.9000244140625 636.350006103515625 636.100006103515625 636.5 636.79998779296875 636.5 635.949981689453125 635.79998779296875 635.600006103515625 635.649993896484375 635.649993896484375 635.5999755859375 635.300018310546875 634.79998779296875 634.4000244140625 634 633.75 633.5999755859375 633.4000244140625 633.399993896484375 633.25 633.149993896484375 633 632.9749908447265625 632.899993896484375 632.75 632.649993896484375 632.5 632.350006103515625 632.149993896484375 632.20001220703125 631.86665852864587123 631.79998779296875 631.600006103515625 631.399993896484375 631.29998779296875 630.93332926432287877 630.26666259765625 629.949981689453125 631.3000030517578125 631.1500244140625 631.100006103515625 631.59999593098962123 632.09999593098962123 632.29998779296875 632.66666666666662877 633 634.350006103515625 635.850006103515625 636.69999186197912877 637.23333740234375 638.0999755859375 639.04998779296875 639.33333333333337123 640.5 641.1999969482421875 642 642.8000030517578125 643.9000244140625 644.0999755859375 645.30000813802087123 646.9000244140625 647.100006103515625 648 649.5 650.70001220703125 652.04998779296875 653.54998779296875 655.100006103515625 657.5 659.0333251953125 661 662.850006103515625 664.79998779296875 665.70001220703125 668.433349609375 670.5 672.16666666666662877 674 675.29998779296875 676.899993896484375 678.0999755859375 678.79998779296875 678.54998779296875 678.20001220703125 678.9000244140625 680.149993896484375 683.53334554036462123 685.79998779296875 688.75 691.9666748046875 696.13334147135412877 700.225006103515625 705.86667887369787877 710.050018310546875 714.0333251953125 718 719.725006103515625 720.0999755859375 719.5 718.9666748046875 718.649993896484375 718.29998779296875 718.06667073567712123 718 717.70001220703125 717.5999755859375 717.550018310546875 717.5 717.5 717.4000244140625
645.54998779296875 647.70001220703125 649.79998779296875 651 651.5999755859375 651.79998779296875 652.04998779296875 651.70001220703125 651.0999755859375 650.20001220703125 649.5999755859375 649 647.6500244140625 646.9000244140625 646.4000244140625 645.899993896484375 645.25 644.66666666666662877 643.9000244140625 643.050018310546875 642.30000813802087123 641.36665852864587123 640.300018310546875 640.25 639.5 639.149993896484375 638.70001220703125 638.25 638.20001220703125 637.4666748046875 637.0999755859375 636.399993896484375 635.96665445963537877 636 635.600006103515625 635.90000406901037877 636 635.79998779296875 635.399993896484375 635.0999755859375 634.83331298828125 590 635.25 635.100006103515625 634.649993896484375 634.23333740234375 633.54998779296875 633.5 633.26666259765625 633.13334147135412877 632.850006103515625 632.79998779296875 632.70001220703125 632.600006103515625 632.5 632.5 632.29998779296875 632 631.899993896484375 632 631.79998779296875 631.70001220703125 631.70001220703125 631.5 631.20001220703125 631.0999755859375 631 630.79998779296875 630.3499755859375 629.9000244140625 630.5999755859375 631.149993896484375 631.20001220703125 631.20001220703125 631.70001220703125 632.0999755859375 632.5999755859375 632.449981689453125 632.79998779296875 633.95001220703125 635.550018310546875 636.20001220703125 636.5 636.9666748046875 637.5 637.9000244140625 638.899993896484375 640.20001220703125 641.050018310546875 641.79998779296875 642 643.0333251953125 643.29998779296875 644.83333333333337123 646.13332112630212123 647.20001220703125 648.42498779296875 649.899993896484375 651.4250030517578125 652.9000244140625 654.800018310546875 656.79998779296875 658.399993896484375 660.40000406901037877 661.550018310546875 663.33333333333337123 664.75 666.800018310546875 669 670.89998372395837123 672.699981689453125 674.26668294270837123 675.699981689453125 676.86665852864587123 677.5 677.93332926432287877 677.600006103515625 677.95001220703125 679.20001220703125 682.75 685.649993896484375 688.36667887369787877 690.5 694.23333740234375 699.149993896484375 703.600006103515625 708.5 713.19999186197912877 716.5 718.5999755859375 719.63334147135412877 719.100006103515625 590 718 717.79998779296875 717.80000813802087123 717.649993896484375 717.399993896484375 717.300018310546875 717.25 717.20001220703125 717.13334147135412877 717.0999755859375
644.29998779296875 646.274993896484375 648.29998779296875 649.7750091552734375 650.600006103515625 651.06667073567712123 650.69999186197912877 650.25 649.625 649.100006103515625 648.5333251953125 648.23333740234375 647.29998779296875 646.5 645.933349609375 645.350006103515625 644.79998779296875 643.949981689453125 643.399993896484375 642.79998779296875 641.899993896484375 640.9000244140625 639.9000244140625 639.45001220703125 639.3499755859375 638.79998779296875 638.350006103515625 637.95001220703125 637.29998779296875 636.80000813802087123 636.5 636 635.399993896484375 635.20001220703125 635 635.25 635 634.9000244140625 634.5999755859375 634.50002034505212123 634.20001220703125 634.399993896484375 634.70001220703125 634.3499755859375 634.100006103515625 633.29998779296875 633.0999755859375 633 632.70001220703125 632.4000244140625 632.29998779296875 632.43332926432287877 632.09999593098962123 632 631.79998779296875 631.66664632161462123 631.850006103515625 631.449981689453125 631.25 631.5 631.23333740234375 631.29998779296875 631.19999186197912877 631 630.75 630.5 630.5333251953125 630.25 629.76666259765625 630 630.5 630.89998372395837123 631.04998779296875 631.399993896484375 631.699981689453125 631.9000244140625 632.13334147135412877 632.56667073567712123 633.5999755859375 633.649993896484375 634.19999186197912877 635.16666666666662877 635.69999186197912877 636.550018310546875 637.13334147135412877 637.850006103515625 638.399993896484375 639.024993896484375 640.050018310546875 640.5 641 641.54998779296875 643 644.0999755859375 644.79998779296875 646.5 647.75 649.4000244140625 650.399993896484375 651.899993896484375 653.8249969482421875 655.399993896484375 656.8000030517578125 659.350006103515625 661.449981689453125 662.20001220703125 662.899993896484375 664.89998372395837123 666.13334147135412877 668.29998779296875 671.5 672.9000244140625 674 675.399993896484375 676.9000244140625 677.5999755859375 677.4000244140625 677 678.63332112630212123 681.83331298828125 684.20001220703125 687.23333740234375 689.20001220703125 692.74000244140620453 698.774993896484375 703.850006103515625 707.39998372395837123 711.43332926432287877 715.5999908447265625 717.95001220703125 718.649993896484375 718.5999755859375 718.25 717.45001220703125 717.5 717.54998779296875 717.20001220703125 717.0999755859375 717 717 716.899993896484375 717.0999755859375 716.9000244140625
642.04998779296875 644.550018310546875 646.79998779296875 648.29998779296875 649.5 649.5999755859375 649.5 649.29998779296875 648.449981689453125 648.0999755859375 647.70001220703125 647.29998779296875 646.649993896484375 646 645.29998779296875 644.63334147135412877 644.149993896484375 643.5 642.9000244140625 642.20001220703125 641.5 640.79998779296875 640.04998779296875 638.899993896484375 638.5999755859375 638.0999755859375 637.79998779296875 637.5 636.90000406901037877 636.29998779296875 635.75 635.30000813802087123 634.79998779296875 634.5 634.29998779296875 634.45001220703125 634.399993896484375 634.30000813802087123 634.0999755859375 633.73333740234375 633.699981689453125 633.79998779296875 634.20001220703125 633.600006103515625 633.149993896484375 632.95001220703125 632.649993896484375 632.5 632.100006103515625 631.850006103515625 631.9000244140625 631.79998779296875 631.5 631.4000244140625 631.20001220703125 631 631 630.79998779296875 630.79998779296875 630.70001220703125 630.79998779296875 630.70001220703125 630.5 630.4000244140625 630.149993896484375 590 629.850006103515625 629 629.9000244140625 629.9000244140625 630.149993896484375 630.5 631.0999755859375 631.59999593098962123 631.79998779296875 631.79998779296875 632.0999755859375 632.0999755859375 632.75 632.95001220703125 633.79998779296875 634.5 635.20001220703125 636 637.25 637.5 638.1500244140625 638.5 638.9000244140625 639.70001220703125 640.63334147135412877 641.25 642.13334147135412877 643.23333740234375 644.16664632161462123 645.69999186197912877 647 648.86665852864587123 649.79998779296875 651.25 653 654.100006103515625 655.5999755859375 657.59999593098962123 659.20001220703125 660.86665852864587123 661.649993896484375 662.5999755859375 664.399993896484375 666.5999755859375 669.3499908447265625 672.0999755859375 672.7249908447265625 674.29998779296875 676.1500091552734375 676.899993896484375 676.8499755859375 676.46665445963537877 677.29998779296875 681.25 684.199981689453125 686 688.399993896484375 692.5 697.54998779296875 702.63332112630212123 707.25 710.600006103515625 713.79998779296875 717.350006103515625 718.5 718.149993896484375 717.5 717.20001220703125 717.20001220703125 717 716.800018310546875 716.73331705729162877 716.9000244140625 716.79998779296875 716.600006103515625 717 716.70001220703125
640.29998779296875 642.8249969482421875 645.29998779296875 646.9000091552734375 648.050018310546875 648.30000813802087123 648.4666748046875 647.8499755859375 647.4499969482421875 646.95001220703125 646.70001220703125 646.33333333333337123 645.54998779296875 645.20001220703125 644.6999969482421875 644.29998779296875 643.63334147135412877 642.80000813802087123 642.5 641.70001220703125 640.70001220703125 640.10001627604162877 639.16666666666662877 638.5 638.23333740234375 637.649993896484375 637.33333333333337123 636.75 636.4000244140625 635.9000091552734375 635.0999755859375 634.9000244140625 634.25 634 633.649993896484375 633.79998779296875 633.70001220703125 633.5999755859375 633.4000091552734375 633 633.050018310546875 633.5 633.20001220703125 632.899993896484375 632.29998779296875 632.54998779296875 632.20001220703125 632 631.699981689453125 631.29998779296875 631.13334147135412877 631.16666666666662877 631 630.75 630.600006103515625 630.4666748046875 630.29998779296875 630.4666748046875 630.29998779296875 630.350006103515625 630.300018310546875 630.149993896484375 629.9666748046875 629.75 629.5 629.350006103515625 629.09999593098962123 629.36667887369787877 629.79998779296875 629.899993896484375 630.46665445963537877 631.0999755859375 631.59999593098962123 631.79998779296875 631.79998779296875 631.649993896484375 631.600006103515625 631.800018310546875 632.100006103515625 632.350006103515625 632.90000406901037877 633.93332926432287877 634.59999593098962123 635.90000406901037877 636.95001220703125 636.79998779296875 637.66666666666662877 638.199981689453125 638.76666259765625 639.29998779296875 640.04998779296875 641.20001220703125 641.70001220703125 642.449981689453125 643.5 645.050018310546875 646.70001220703125 648.29998779296875 649.40000406901037877 650.69999186197912877 651.93332926432287877 652.73333740234375 654.5333251953125 656.06667073567712123 657.29998779296875 659.54998779296875 660.449981689453125 661.800018310546875 663.699981689453125 665.56667073567712123 668.649993896484375 670.5999755859375 672.050018310546875 674.0999755859375 675.20001220703125 675.850006103515625 676.100006103515625 676 677.6500244140625 679.449981689453125 682.449981689453125 685.23331705729162877 688.54998779296875 691.933349609375 696.3249969482421875 701.3249969482421875 704.5 709.46665445963537877 713.4000091552734375 716.70001220703125 718.09999593098962123 717.600006103515625 717.29998779296875 716.80000813802087123 716.75 716.5999755859375 716.4000244140625 716.300018310546875 716.36665852864587123 716.25 716.29998779296875 716.4000244140625 716.20001220703125
639.399993896484375 641.699981689453125 643.79998779296875 645.5 647.0999755859375 647.29998779296875 647.5 647.100006103515625 646.5999755859375 646.149993896484375 645.79998779296875 645.449981689453125 644.9000244140625 644.5 644.050018310546875 643.649993896484375 643 642.399993896484375 641.600006103515625 641.050018310546875 640.5 639.75 638.9000244140625 638.04998779296875 590 637.399993896484375 636.800018310546875 636.4000244140625 635.90000406901037877 635.29998779296875 634.66666666666662877 634.149993896484375 633.899993896484375 633.29998779296875 633.09999593098962123 632.899993896484375 633.04998779296875 633.0999755859375 632.70001220703125 632.59999593098962123 632.600006103515625 632.800018310546875 632.43332926432287877 631.95001220703125 631.90000406901037877 631.949981689453125 631.36667887369787877 631.1500244140625 630.95001220703125 630.800018310546875 630.5 630.29998779296875 630.45001220703125 630 629.9000244140625 629.850006103515625 629.79998779296875 629.70001220703125 630 629.9000244140625 629.79998779296875 629.70001220703125 629.70001220703125 629.25 629 628.9000244140625 628.800018310546875 629.20001220703125 629.4000244140625 630.100006103515625 631.5999755859375 632.5 631.899993896484375 631.949981689453125 590 631.5 631.20001220703125 631.25 631.29998779296875 631.5 632.25 633.0999755859375 634 634.79998779296875 635.800018310546875 636.5999755859375 637.350006103515625 638.0999755859375 638.70001220703125 639.149993896484375 639.850006103515625 640.600006103515625 641.13334147135412877 641.8499755859375 643.125 644.699981689453125 646.5249786376953125 648.0999755859375 649.399993896484375 650.5 651.399993896484375 652.5999755859375 654.0999755859375 655.70001220703125 657.33333333333337123 658.70001220703125 659.75 660.5999755859375 662.25 665.850006103515625 666.949981689453125 669.03334554036462123 670.899993896484375 672.46665445963537877 673.350006103515625 675.399993896484375 675.49997965494787877 675.13334147135412877 675.75 679.13334147135412877 681.25 683.649993896484375 687.20001220703125 689.79998779296875 693.95001220703125 700 705.40000406901037877 709.20001220703125 713.63332112630212123 716.350006103515625 717.600006103515625 717.29998779296875 716.86667887369787877 716.350006103515625 716.4000244140625 716.23333740234375 716.199981689453125 716.29998779296875 715.850006103515625 715.79998779296875 715.800018310546875 715.8499755859375 715.9000244140625
638.5999755859375 640.3000030517578125 642.25 643.725006103515625 645.449981689453125 646.1250152587890625 646.600006103515625 646.29998779296875 645.8000030517578125 645.29998779296875 645 644.46665445963537877 644 643.566650390625 643.5 643.20001220703125 642.54998779296875 641.8000030517578125 641.20001220703125 640.5 639.699981689453125 639.10001627604162877 638.5 637.699981689453125 637.199981689453125 636.86665852864587123 636 636.20001220703125 635.43332926432287877 634.949981689453125 634.5 633.9000244140625 633.33333333333337123 632.75 632.649993896484375 632.5999755859375 632.5 632.54998779296875 632.399993896484375 631.9000244140625 631.899993896484375 631.9000244140625 631.850006103515625 631.79998779296875 631.70001220703125 631.29998779296875 631 630.5999755859375 630.300018310546875 630.26666259765625 629.83333333333337123 629.79998779296875 629.73333740234375 629.449981689453125 629.4000244140625 629.300018310546875 629.399993896484375 629.29998779296875 629.56667073567712123 629.449981689453125 629.350006103515625 629.350006103515625 629.29998779296875 628.899993896484375 628.5333251953125 628.4666748046875 628.45001220703125 628.83331298828125 629.30000813802087123 629.93332926432287877 630.76668294270837123 631.399993896484375 631.649993896484375 631.95001220703125 631.649993896484375 631.300018310546875 630.9666748046875 630.79998779296875 630.86667887369787877 630.75 630.89998372395837123 631.99997965494787877 632.86665852864587123 634.06667073567712123 634.850006103515625 635.76666259765625 636.54998779296875 637.5749969482421875 638.25 638.75 639.100006103515625 639.70001220703125 640.449981689453125 641.5999755859375 643 644.70001220703125 645.79998779296875 647.0333251953125 648.56667073567712123 649.5 650.86667887369787877 651.73331705729162877 653.933349609375 655.0999755859375 656.350006103515625 658.20001220703125 659.20001220703125 659.600006103515625 661.3000030517578125 663.399993896484375 665.449981689453125 667.20001220703125 669.5 670.75 672 673.49997965494787877 674.5 674.4000244140625 675.9666748046875 677.69999186197912877 680.5999755859375 682.63334147135412877 686.0999908447265625 688.54998779296875 691.699981689453125 698.63334147135412877 703.20001220703125 706.550018310546875 711.09999593098962123 714.5999755859375 717.199981689453125 717.100006103515625 716.199981689453125 715.899993896484375 715.95001220703125 715.79998779296875 715.75 715.649993896484375 715.699981689453125 715.54998779296875 715.5 715.449981689453125 715.20001220703125
637.5 638.95001220703125 640.70001220703125 641.949981689453125 643.5999755859375 644.8499755859375 645.5 645.4000244140625 645.20001220703125 644.600006103515625 644.149993896484375 643.70001220703125 643.3499755859375 643 642.70001220703125 642.350006103515625 641.79998779296875 641.29998779296875 640.5333251953125 640.100006103515625 639.5 638.79998779296875 638.04998779296875 637 636.5999755859375 636.399993896484375 635.79998779296875 635.5 635.050018310546875 634.29998779296875 634.20001220703125 633.5 633 632.5 632.199981689453125 632.100006103515625 632.03334554036462123 632 632 631.95001220703125 631.79998779296875 631.5 631.5999755859375 631.13334147135412877 631.06667073567712123 630.70001220703125 630.4000091552734375 630.100006103515625 630 629.699981689453125 629.4000244140625 629.20001220703125 628.899993896484375 629.20001220703125 628.90000406901037877 628.79998779296875 628.79998779296875 629.100006103515625 629.29998779296875 629.0999755859375 629 628.95001220703125 628.79998779296875 628.70001220703125 628.4000244140625 628.29998779296875 628.29998779296875 628.5 629.20001220703125 630.0999755859375 630.5 631 631.36667887369787877 631.300018310546875 631.20001220703125 631 630.60001627604162877 630.5 630.20001220703125 630.20001220703125 630.29998779296875 630.5999755859375 632.350006103515625 633.70001220703125 634.26666259765625 635.4000244140625 636 636.850006103515625 637.29998779296875 638 638.5 638.80000813802087123 639.699981689453125 641.0999908447265625 642.5 644.20001220703125 645.4000244140625 646.9000244140625 647.899993896484375 649 650.199981689453125 651.5 652.649993896484375 654.899993896484375 656.20001220703125 658.149993896484375 658.4000244140625 659.0999755859375 660.399993896484375 661.79998779296875 663.86667887369787877 665.350006103515625 667.82501220703125 670.04998779296875 671.36665852864587123 672.70001220703125 674.100006103515625 674.4666748046875 676.5 678.1500244140625 679.600006103515625 682.5 685 687.0999755859375 692.8500213623046875 697.49997965494787877 701.63332112630212123 706.59999593098962123 710.75 714.73333740234375 716.75 716.25 715.850006103515625 715.600006103515625 715.449981689453125 715.79998779296875 715.649993896484375 715.4000244140625 715.5 715.19999186197912877 715.100006103515625 715.0999755859375 715
636 637.5 638.850006103515625 640.3249969482421875 641.850006103515625 643.3000030517578125 644.45001220703125 644.60001627604162877 644.29998779296875 643.83333333333337123 643.600006103515625 643.25 642.56667073567712123 642.25 642 641.70001220703125 641.10001627604162877 640.600006103515625 640.050018310546875 639.5 639.0333251953125 638.33333333333337123 637.600006103515625 636.80000813802087123 636.25 635.70001220703125 635.5999755859375 634.90000406901037877 634.550018310546875 634.100006103515625 633.5999755859375 632.899993896484375 632.45001220703125 632.20001220703125 631.79998779296875 631.79998779296875 631.9666748046875 632 631.79998779296875 631.5999755859375 631.25 631 630.89998372395837123 630.5999755859375 630.5 630.19999186197912877 629.79998779296875 629.5 629.4666748046875 629.149993896484375 628.949981689453125 628.73331705729162877 628.600006103515625 628.449981689453125 628.4000244140625 590 628.50002034505212123 628.600006103515625 628.699981689453125 628.79998779296875 628.79998779296875 628.59999593098962123 628.70001220703125 628.350006103515625 628.19999186197912877 628.149993896484375 628.25 628.76668294270837123 629.199981689453125 629.699981689453125 630.26666259765625 630.899993896484375 630.9000244140625 631.100006103515625 630.850006103515625 630.56667073567712123 630.29998779296875 630.0333251953125 629.949981689453125 629.86667887369787877 629.899993896484375 630.25 631.39998372395837123 632.5999755859375 633.649993896484375 634.550018310546875 635.1999969482421875 635.75 636.4999847412109375 637.04998779296875 637.75 638.29998779296875 639.350006103515625 640.4000244140625 642.399993896484375 644 645.066650390625 646.40000406901037877 647.36665852864587123 648.649993896484375 649.975006103515625 650.850006103515625 652.10001627604162877 653.20001220703125 656.5 657.86667887369787877 658.149993896484375 658.59999593098962123 660.09999593098962123 661.40000406901037877 663.20001220703125 664.79998779296875 666.29998779296875 668.9000244140625 670.9000244140625 672.26668294270837123 674.20001220703125 675.0999755859375 676.20001220703125 677.75 679.9000244140625 681.75 684.433349609375 687.550018310546875 691.45999755859372726 697.600006103515625 701.800018310546875 706.76666259765625 710.25 713.9000244140625 716.20001220703125 716.149993896484375 715.70001220703125 715.26666259765625 715.0999755859375 715.100006103515625 715.100006103515625 715.0500030517578125 715.20001220703125 714.79998779296875 714.9000244140625 714.800018310546875 714.5999755859375
634.350006103515625 635.8499755859375 637.29998779296875 638.649993896484375 640.20001220703125 641.600006103515625 642.9000244140625 643.70001220703125 643.5 643.0999755859375 642.9000244140625 642.5 642.100006103515625 641.5 641.39998372395837123 640.9000244140625 640.5 640 639.59999593098962123 639.0999755859375 638.5 637.79998779296875 637 636.5 635.9000244140625 635.20001220703125 635.050018310546875 634.600006103515625 634.20001220703125 633.75 633.13334147135412877 632.649993896484375 632.29998779296875 632.16666666666662877 632.20001220703125 632.25 631.70001220703125 631.5 631.16666666666662877 630.949981689453125 630.649993896484375 630.600006103515625 630.350006103515625 630.149993896484375 629.96665445963537877 629.699981689453125 629.399993896484375 629.199981689453125 628.79998779296875 628.5999755859375 628.5 628.20001220703125 628 628 627.899993896484375 627.8499755859375 628.04998779296875 628.29998779296875 628.4000244140625 628.449981689453125 628.449981689453125 628.45001220703125 628.300018310546875 628.20001220703125 628 628 628.25 628.5 628.79998779296875 629.350006103515625 630.20001220703125 630.5999755859375 630.899993896484375 630.9000244140625 630.70001220703125 630.399993896484375 630 629.5999755859375 629.5 629.5 629.5 630 630.100006103515625 631.7750091552734375 633.20001220703125 633.70001220703125 634.20001220703125 634.70001220703125 635.5999755859375 636.20001220703125 636.875 637.350006103515625 638.5 639.93332926432287877 641.73333740234375 643.33333333333337123 644.5999755859375 645.5 646.29998779296875 647.350006103515625 648.70001220703125 649.95001220703125 651 652.80000813802087123 654.5 656.899993896484375 658.0999755859375 658.550018310546875 659.29998779296875 661.5 662.75 664.13334147135412877 666.1500244140625 668.850006103515625 670.45001220703125 671.46665445963537877 674.25 675.199981689453125 676.43332926432287877 677.5999755859375 678.63334147135412877 680.54998779296875 683.149993896484375 686.25 691.59999593098962123 696.66666666666662877 701.3249969482421875 705.63332112630212123 710.75 713.26666259765625 715.73333740234375 715.79998779296875 715.399993896484375 714.9000244140625 714.79998779296875 714.79998779296875 714.649993896484375 714.5 714.550018310546875 714.45001220703125 714.4000244140625 714.350006103515625 714.4000244140625
633 634.32501220703125 635.850006103515625 637.0500030517578125 638.399993896484375 639.9499969482421875 641.350006103515625 642.4250030517578125 642.6500244140625 642.399993896484375 642.050018310546875 641.66668701171875 641.29998779296875 641.149993896484375 640.649993896484375 640.33331298828125 640 639.5 639.20001220703125 638.625 638.04998779296875 637.5999755859375 636.66666666666662877 636.20001220703125 635.5 634.86667887369787877 634.350006103515625 634.149993896484375 633.89998372395837123 633.5999755859375 633.100006103515625 632.649993896484375 632.5 632.300018310546875 632.20001220703125 632.300018310546875 632.0999755859375 630.850006103515625 630.79998779296875 630.5999755859375 630.149993896484375 630 629.79998779296875 629.5 629.4000244140625 629.0999755859375 628.83333333333337123 628.600006103515625 628.25 590 627.83333333333337123 627.9000244140625 627.449981689453125 627.5999755859375 627.20001220703125 627.36665852864587123 627.5 627.600006103515625 627.850006103515625 628 627.86665852864587123 628 627.79998779296875 627.59999593098962123 627.54998779296875 627.5 627.73333740234375 628.199981689453125 628.70001220703125 629.46665445963537877 630.0999755859375 630.36667887369787877 630.5 630.54998779296875 630.5 630.25 629.4000244140625 629.23333740234375 628.949981689453125 628.949981689453125 629.06667073567712123 629.5 629.9000244140625 630.850006103515625 632.29998779296875 632.70001220703125 633.26666259765625 633.83333333333337123 634.5333251953125 635.550018310546875 636 636.75 638.4000244140625 639.600006103515625 641 642.75 643.96665445963537877 644.86665852864587123 646.23333740234375 647.26666259765625 648.199981689453125 649.5 650.5333251953125 651.9000244140625 653.73331705729162877 655.433349609375 656.850006103515625 657.5 658.79998779296875 659.699981689453125 661.8499755859375 663.100006103515625 666.050018310546875 668.29998779296875 670.20001220703125 672.75 674.5 675.25 676.29998779296875 676.79998779296875 678.199981689453125 679.93332926432287877 682.649993896484375 686.16668701171875 690.33333333333337123 696.524993896484375 701.29998779296875 705.13332112630212123 708.76666259765625 712.70001220703125 715 715.5 714.899993896484375 714.70001220703125 714.70001220703125 714.54998779296875 714.350006103515625 714.25 714.20001220703125 714.20001220703125 714.199981689453125 714.0999755859375 590
631.699981689453125 632.899993896484375 634.0999755859375 635.45001220703125 636.79998779296875 638.25 639.5 640.949981689453125 641.5999755859375 641.5 641.29998779296875 641 640.5999755859375 640.5 640.0999755859375 639.899993896484375 639.5 639.024993896484375 638.70001220703125 638.149993896484375 637.5999755859375 637 636.29998779296875 635.56667073567712123 634.95001220703125 634.149993896484375 633.79998779296875 633.5999755859375 633.5 633 632.5999755859375 632.5 632.26666259765625 631.899993896484375 632 632 631.23333740234375 630.4000244140625 630.274993896484375 629.850006103515625 629.70001220703125 629.4000244140625 629.20001220703125 629.16666666666662877 628.70001220703125 628.4666748046875 628.20001220703125 628 627.79998779296875 627.45001220703125 627.399993896484375 627.149993896484375 627 626.86665852864587123 626.70001220703125 626.9000244140625 626.899993896484375 626.9000244140625 627.1500244140625 627.20001220703125 627.20001220703125 627.3499755859375 627.20001220703125 627 626.9000244140625 627 627.29998779296875 627.899993896484375 628.5 629.0999755859375 629.649993896484375 630.300018310546875 630.5 630.45001220703125 630.29998779296875 630.149993896484375 629.45001220703125 628.9000244140625 628.649993896484375 628.5999755859375 628.70001220703125 629 629.600006103515625 630.09999593098962123 631.20001220703125 631.949981689453125 632.79998779296875 633.350006103515625 634 634.80000813802087123 635.39998372395837123 635.95001220703125 637.375 638.899993896484375 639.9999847412109375 641.4000244140625 643 644.29998779296875 645.54998779296875 646.9000244140625 647.70001220703125 648.550018310546875 649.9000244140625 651.03334554036462123 652.43332926432287877 654.70001220703125 656.149993896484375 656.79998779296875 656.9000244140625 658.66666666666662877 660.600006103515625 662.95001220703125 665.40000406901037877 667.79998779296875 670.600006103515625 673.199981689453125 674.79998779296875 675.600006103515625 676 676.933349609375 677.9000244140625 678.95001220703125 681.5 685.25 690.25 694.86665852864587123 700.3499908447265625 704.25 708.350006103515625 711.63334147135412877 714.13334147135412877 715.09999593098962123 714.5 714.5 714.399993896484375 714.20001220703125 714 714 714 713.80000813802087123 714 713.79998779296875 714
630.70001220703125 631.82501220703125 632.850006103515625 633.5250091552734375 635.050018310546875 636.54998779296875 637.75 639.0500030517578125 640.100006103515625 640.73333740234375 640.350006103515625 640.433349609375 639.899993896484375 639.70001220703125 639.33333333333337123 639.100006103515625 638.899993896484375 638.550018310546875 638.20001220703125 637.5999908447265625 637.149993896484375 636.46665445963537877 636.0999755859375 635.1500244140625 634.45001220703125 633.79998779296875 633.4000091552734375 633.20001220703125 632.79998779296875 632.5 632.100006103515625 632.25 631.95001220703125 631.5999755859375 631.649993896484375 631.33333333333337123 630.29998779296875 630.0999755859375 629.75 629.4000244140625 629.04998779296875 628.79998779296875 628.5999755859375 628.46665445963537877 628.29998779296875 627.899993896484375 627.70001220703125 627.566650390625 627.100006103515625 626.9000244140625 626.9000244140625 626.600006103515625 626.449981689453125 626.4000244140625 626.20001220703125 626.350006103515625 626.350006103515625 626.350006103515625 626.5 626.300018310546875 626.649993896484375 626.5999755859375 626.29998779296875 626.5 626.3499755859375 626.433349609375 626.899993896484375 627.33333333333337123 628.06667073567712123 628.70001220703125 629.66668701171875 630 630.23333740234375 630.100006103515625 629.95001220703125 629.70001220703125 629.33333333333337123 628.5 628.25 628.26666259765625 628.350006103515625 628.5 629 629.933349609375 630.5999755859375 631.43332926432287877 632.066650390625 632.86667887369787877 633.76666259765625 634 634.550018310546875 635.5 636.75 637.70001220703125 639.20001220703125 640.75 641.9000091552734375 643.199981689453125 644.6750030517578125 645.75 646.90000406901037877 647.79998779296875 649.25 650.5 651.45001220703125 653.5333251953125 654.56667073567712123 655.60001627604162877 655.649993896484375 657.5999755859375 660.5 662.80000813802087123 665.8499755859375 668.0999755859375 670.70001220703125 672.26666259765625 673.899993896484375 674.899993896484375 675.75 676.5 677.399993896484375 678.63334147135412877 681.59999593098962123 684.76666259765625 688.9749908447265625 695.54998779296875 699.25 703.33333333333337123 707.40000406901037877 711.20001220703125 713.649993896484375 714.70001220703125 714.5 714.149993896484375 713.93332926432287877 713.850006103515625 713.550018310546875 713.45001220703125 713.29998779296875 713.43332926432287877 713.350006103515625 713.25 590
629.399993896484375 630.600006103515625 631.70001220703125 632.449981689453125 633.29998779296875 634.850006103515625 635.9000244140625 637.100006103515625 638.29998779296875 639.20001220703125 639.20001220703125 639.29998779296875 639.29998779296875 639.0999755859375 638.75 638.4000244140625 638 637.93332926432287877 637.5 637.0999755859375 636.45001220703125 636 635.25 634.75 633.850006103515625 633.54998779296875 632.79998779296875 632.4666748046875 632.1500244140625 632 631.75 631.95001220703125 631.5 631.399993896484375 631.20001220703125 630.75 630.4000244140625 629.76666259765625 629.100006103515625 628.83333333333337123 628.350006103515625 628.20001220703125 627.89998372395837123 627.70001220703125 627.59999593098962123 627.300018310546875 627.0999755859375 626.9000244140625 626.649993896484375 626.45001220703125 626.25 626.100006103515625 625.79998779296875 625.850006103515625 625.850006103515625 625.79998779296875 626 625.70001220703125 625.6500244140625 625.9000244140625 625.9666748046875 625.95001220703125 625.800018310546875 625.949981689453125 625.79998779296875 626 626.399993896484375 626.9000244140625 627.5 628.20001220703125 629.04998779296875 629.550018310546875 629.79998779296875 629.79998779296875 629.649993896484375 629.5 629 628.4000244140625 628 627.70001220703125 627.9000244140625 628.13332112630212123 628.70001220703125 629.600006103515625 630.70001220703125 631.0999755859375 632.050018310546875 632.79998779296875 633 633.6500091552734375 633.949981689453125 634.899993896484375 635.899993896484375 636.95001220703125 638.649993896484375 640.0999755859375 641.100006103515625 642.29998779296875 643.550018310546875 644.4000244140625 645.850006103515625 646.79998779296875 647.80000813802087123 649.36665852864587123 650.5 652.25 653.5999755859375 654.5 656.149993896484375 658.04998779296875 660.70001220703125 663.149993896484375 664.399993896484375 666.4000091552734375 668.5 671 673.29998779296875 674.649993896484375 675.20001220703125 675.75 676.70001220703125 678.79998779296875 681.5 684.649993896484375 689.86667887369787877 694.76666259765625 698.33333333333337123 702.300018310546875 707.26666259765625 710.20001220703125 712.5 714.29998779296875 714.1500244140625 713.79998779296875 713.79998779296875 713.25 713 712.70001220703125 712.550018310546875 712.70001220703125 712.5 712.5 712.5999755859375
628.20001220703125 629.375 630.5 631.20001220703125 632.63334147135412877 633.30000813802087123 634.4666748046875 635.09999593098962123 636.16666666666662877 636.649993896484375 636.86665852864587123 638.13334147135412877 638.5 638.29998779296875 638.100006103515625 637.73333740234375 637.399993896484375 637 636.80000813802087123 636.29998779296875 635.9000244140625 635.4666748046875 635 633.949981689453125 633.4000244140625 633 632.79998779296875 631.949981689453125 631.5999755859375 631.4000244140625 631.46665445963537877 631.6500244140625 630.9000244140625 631.100006103515625 631.066650390625 630.70001220703125 630.024993896484375 629.29998779296875 628.70001220703125 628.4000244140625 627.79998779296875 627.75 627.29998779296875 627.20001220703125 626.9000244140625 626.76666259765625 626.600006103515625 626.399993896484375 626.20001220703125 625.899993896484375 625.699981689453125 625.54998779296875 625.449981689453125 625.4000244140625 625.16666666666662877 625.100006103515625 625.23335774739587123 625.20001220703125 625.20001220703125 625.29998779296875 625.4000244140625 625.29998779296875 625.4000244140625 625.350006103515625 625.20001220703125 625.45001220703125 625.850006103515625 626.25 626.90000406901037877 627.5 628.649993896484375 629.25 629.5 629.5999755859375 629.199981689453125 629.25 628.850006103515625 628.25 627.600006103515625 627.566650390625 627.550018310546875 627.70001220703125 628.399993896484375 629.100006103515625 629.8499755859375 631 631.76666259765625 632.399993896484375 633.199981689453125 633.5 633.5999755859375 634.5999755859375 635.25 636.5 637.4000244140625 638.8750152587890625 640.25 641.375 642.54998779296875 643.725006103515625 644.75 645.5 647.100006103515625 648.149993896484375 649.26666259765625 650.399993896484375 651.875 653.45001220703125 655.45001220703125 657.79998779296875 659.675018310546875 661.5 663.399993896484375 665.20001220703125 667.4666748046875 670.13334147135412877 673.29998779296875 674.43332926432287877 674.79998779296875 675.59999593098962123 676.4000244140625 677.9250030517578125 681.29998779296875 684.149993896484375 687.0333251953125 692.36665852864587123 697.350006103515625 701.149993896484375 704.67498779296875 708.4000244140625 710.850006103515625 713.4000244140625 713.600006103515625 713.25 712.93332926432287877 712.79998779296875 712.43332926432287877 712.20001220703125 712.0999755859375 712.16664632161462123 712.25 712.20001220703125 712.20001220703125
627.050018310546875 628.25 629.4000244140625 630.199981689453125 631.5 632.29998779296875 632.949981689453125 633.4000244140625 633.75 634.75 635.5999755859375 635.9000244140625 637.350006103515625 637.5 637.5 637.149993896484375 636.70001220703125 636.5 636.050018310546875 635.70001220703125 635.449981689453125 635 634.350006103515625 633.800018310546875 633.25 632.79998779296875 631.899993896484375 631.5 631.1750030517578125 631 630.949981689453125 630.79998779296875 630.9000244140625 631 631 630.4000244140625 629.29998779296875 628.33335367838537877 627.95001220703125 627.66666666666662877 627.29998779296875 626.99997965494787877 626.699981689453125 626.600006103515625 626.46665445963537877 626.4000244140625 626.29998779296875 626 590 625.4000244140625 625.25 625.100006103515625 625.09999593098962123 624.9000244140625 624.5999755859375 624.5 624.399993896484375 624.600006103515625 624.75 624.5999755859375 624.79998779296875 624.70001220703125 624.774993896484375 624.70001220703125 624.79998779296875 624.9000244140625 625.199981689453125 625.5 626.399993896484375 627 627.9499969482421875 628.5999755859375 629.04998779296875 629.300018310546875 628.95001220703125 629.0999755859375 628.5999755859375 627.95001220703125 627 627.20001220703125 627 627.36665852864587123 627.79998779296875 628.550018310546875 630.0999755859375 630.79998779296875 631.54998779296875 632.25 632.70001220703125 633.149993896484375 633.350006103515625 634.0999908447265625 635.100006103515625 636 637.1500244140625 638.29998779296875 639.649993896484375 640.5999755859375 641.75 642.79998779296875 643.9000244140625 645.3499755859375 646.066650390625 647.350006103515625 648.649993896484375 649.5999755859375 650.4000244140625 652.75 655.06667073567712123 656.95001220703125 659 661.80000813802087123 663.79998779296875 665.350006103515625 667.9000244140625 669.79998779296875 673.350006103515625 674.20001220703125 674.449981689453125 675.29998779296875 676.5 677.70001220703125 680.850006103515625 684.0999755859375 688.0749969482421875 692.54998779296875 696.5333251953125 700.350006103515625 703.5 706.5500030517578125 708.8499755859375 711.0333251953125 713 712.70001220703125 712.649993896484375 712.4000244140625 712.149993896484375 712 712.04998779296875 711.9000244140625 712 711.9000244140625 711.95001220703125
625.70001220703125 627.0250091552734375 628.100006103515625 629.3000030517578125 630.45001220703125 630.86667887369787877 631.73333740234375 632.149993896484375 632.79998779296875 633.25 633.93332926432287877 635 635.45001220703125 636.5 636.54998779296875 636.45001220703125 635.93332926432287877 635.73331705729162877 635.29998779296875 635 634.79998779296875 634.350006103515625 634.0999755859375 633.36665852864587123 632.4000244140625 632.04998779296875 631.5999755859375 631 630.5 630.449981689453125 630.56667073567712123 630.70001220703125 630.83333333333337123 630.95001220703125 631 630.54998779296875 628.899993896484375 627.550018310546875 627.29998779296875 627 626.850006103515625 626.56667073567712123 626.29998779296875 626.29998779296875 626 625.949981689453125 625.76666259765625 625.600006103515625 625.449981689453125 625.23331705729162877 624.9000244140625 624.80000813802087123 624.5 624.399993896484375 624.100006103515625 624 624 624 624.13334147135412877 623.949981689453125 624.0999755859375 624.29998779296875 624.29998779296875 624.300018310546875 624.29998779296875 624.4499969482421875 624.75 625 625.56667073567712123 626.399993896484375 627.20001220703125 628.0333251953125 628.70001220703125 628.75 628.5 628.45001220703125 628.20001220703125 627.5 626.79998779296875 626.70001220703125 626.79998779296875 626.9000244140625 627.350006103515625 628.33331298828125 629.56667073567712123 630.36667887369787877 630.899993896484375 631.600006103515625 631.70001220703125 632.5 633 633.4000244140625 634.4000244140625 635.79998779296875 636.86665852864587123 638.06667073567712123 638.5333251953125 639.46665445963537877 640.40000406901037877 641.66666666666662877 642.70001220703125 644.4000244140625 645.4000244140625 645.9666748046875 647.4666748046875 648.33335367838537877 650.26668294270837123 652.93330891927087123 655.4000244140625 657.899993896484375 660.20001220703125 662.649993896484375 665.0999755859375 667.2249908447265625 669.699981689453125 671.649993896484375 673.33333333333337123 590 673.86665852864587123 674.449981689453125 675.675018310546875 679.149993896484375 681.09999593098962123 684.43332926432287877 687.43332926432287877 691.29998779296875 696.5 699.100006103515625 701.59999593098962123 704.4000244140625 706.5 709.449981689453125 712.449981689453125 712.4666748046875 712.5 712.149993896484375 711.9000244140625 711.9000244140625 711.850006103515625 711.79998779296875 711.9000244140625 711.79998779296875 590
624.45001220703125 625.5999755859375 626.79998779296875 627.95001220703125 629 629.75 630.5999755859375 631.199981689453125 632 632.4000244140625 632.800018310546875 633.5 633.9000244140625 635 635.4000244140625 635.5999755859375 635.20001220703125 634.79998779296875 634.5999755859375 634.4000244140625 634.0999755859375 633.79998779296875 633.29998779296875 632.30000813802087123 632 631.45001220703125 631 630.60001627604162877 630.149993896484375 629.9000244140625 630.09999593098962123 630.5 630.20001220703125 630.9000244140625 630.5 629.5999755859375 627.649993896484375 627.04998779296875 627.16666666666662877 626.949981689453125 626.399993896484375 626.050018310546875 625.899993896484375 625.75 625.699981689453125 625.5 625.29998779296875 625.20001220703125 624.79998779296875 624.70001220703125 624.5 624.25 624.100006103515625 623.9000244140625 623.550018310546875 623.5 623.4000244140625 623.54998779296875 623.5999755859375 623.54998779296875 623.649993896484375 623.90000406901037877 623.9000244140625 623.79998779296875 623.79998779296875 623.79998779296875 624 624.29998779296875 625 625.76666259765625 626.899993896484375 627.70001220703125 628.1500244140625 628.3249969482421875 628 627.9000244140625 627.79998779296875 627.29998779296875 626.45001220703125 626.13332112630212123 626.20001220703125 626.39998372395837123 627.5 628.600006103515625 629.5 629.949981689453125 630.800018310546875 631.050018310546875 631.09999593098962123 631.76666259765625 632.40000406901037877 633.26666259765625 634.36667887369787877 635.45001220703125 636.4000244140625 637.0999755859375 638 639 639.75 640.9000244140625 642.59999593098962123 643.600006103515625 644.5333251953125 645.29998779296875 646.20001220703125 647.449981689453125 650.149993896484375 652.850006103515625 654.566650390625 656.600006103515625 659.26666259765625 661.566650390625 665 668.20001220703125 670.43332926432287877 672.20001220703125 672.80000813802087123 672.899993896484375 672.9000244140625 673.75 675 677.60001627604162877 681.399993896484375 684.29998779296875 686.149993896484375 689.30000813802087123 693.86665852864587123 697.050018310546875 700.73333740234375 702.75 705.0333251953125 708.800018310546875 710.70001220703125 712.25 712.350006103515625 711.79998779296875 711.54998779296875 711.5 711.29998779296875 711.399993896484375 711.449981689453125 711.4000244140625 711.29998779296875
623 624.350006103515625 625.75 626.600006103515625 627.5 628.54998779296875 629.550018310546875 630.23333740234375 630.949981689453125 631.625 631.95001220703125 632.25 632.46665445963537877 633.29998779296875 633.5 634.70001220703125 634.13334147135412877 634 633.899993896484375 633.59999593098962123 633.29998779296875 632.9666748046875 632.20001220703125 631.86667887369787877 631.5 631.0999755859375 630.550018310546875 630.20001220703125 629.70001220703125 629.4666748046875 629.699981689453125 629.70001220703125 629.449981689453125 628.699981689453125 628.149993896484375 627.949981689453125 627 627 626.899993896484375 626.54998779296875 626.149993896484375 625.95001220703125 625.79998779296875 625.5999755859375 625.300018310546875 625.16668701171875 624.850006103515625 624.9000244140625 624.5 624.300018310546875 624.06667073567712123 623.79998779296875 623.5999755859375 623.350006103515625 623.4000244140625 623.0999755859375 623.0999755859375 623.09999593098962123 623.29998779296875 623.100006103515625 623.20001220703125 623.20001220703125 623.3249969482421875 623.25 623.25 623.25 623.5 623.70001220703125 624.33333333333337123 625.20001220703125 626.16666666666662877 627.0333251953125 627.70001220703125 627.75 627.79998779296875 627.3000030517578125 627 626.70001220703125 625.66666666666662877 625.5999755859375 625.70001220703125 625.9666748046875 627 628.20001220703125 629.19999186197912877 629.75 630.199981689453125 630.5999755859375 630.9000244140625 631.25 631.9000244140625 633.100006103515625 634.0999755859375 635.20001220703125 635.96665445963537877 636.73333740234375 637.350006103515625 638.066650390625 638.86665852864587123 640.43332926432287877 641.79998779296875 643.04998779296875 643.800018310546875 644.0333251953125 645.50002034505212123 647.26668294270837123 649.63334147135412877 651.45001220703125 654.149993896484375 656.29998779296875 657.9000244140625 660.850006103515625 664.4499969482421875 668.149993896484375 669.5999755859375 670.63332112630212123 672.199981689453125 672 672.29998779296875 673.4666748046875 675.5 678.54998779296875 681.10001627604162877 683.5 686 688.5 693.1500244140625 696.59999593098962123 699.0999755859375 701.949981689453125 705.45001220703125 708.75 711.399993896484375 712.100006103515625 712.29998779296875 711.79998779296875 711.350006103515625 711.300018310546875 711.29998779296875 711.29998779296875 711.29998779296875 711.29998779296875 711.20001220703125
621.699981689453125 623.149993896484375 624.29998779296875 625.25 626.20001220703125 627.350006103515625 628.4000244140625 629.29998779296875 629.9000244140625 630.5 630.9000244140625 631.4000244140625 631.449981689453125 631.9000244140625 632.3499755859375 632.850006103515625 633.199981689453125 633.0999755859375 632.79998779296875 632.649993896484375 632.0999755859375 631.800018310546875 631.29998779296875 631.04998779296875 630.70001220703125 630.5 630 629.56667073567712123 629 628.899993896484375 628.649993896484375 628.5 628.0999755859375 628.149993896484375 627.29998779296875 627.20001220703125 627.04998779296875 626.86667887369787877 626.79998779296875 626.29998779296875 626 625.800018310546875 625.5 625.149993896484375 625 624.70001220703125 624.600006103515625 624.350006103515625 624.10001627604162877 623.9000244140625 623.550018310546875 623.43332926432287877 623.199981689453125 623 622.79998779296875 622.649993896484375 622.73331705729162877 622.5999755859375 622.75 622.79998779296875 622.66666666666662877 622.9000244140625 622.70001220703125 622.70001220703125 622.70001220703125 622.79998779296875 623 623.20001220703125 623.649993896484375 624.63332112630212123 625.79998779296875 626.29998779296875 627.0500030517578125 627.25 627.0999755859375 626.550018310546875 626.29998779296875 625.649993896484375 625.20001220703125 625 625.04998779296875 625.449981689453125 626.73333740234375 628.0999755859375 629 629.550018310546875 629.90000406901037877 630.199981689453125 630.649993896484375 631.16666666666662877 631.86665852864587123 632.66666666666662877 634 634.79998779296875 635.29998779296875 635.949981689453125 636.5 637.100006103515625 637.9000244140625 639.100006103515625 640.63334147135412877 641.43332926432287877 642.4000244140625 642.29998779296875 644 646.79998779296875 649.29998779296875 652.20001220703125 653.649993896484375 655.63334147135412877 658.03334554036462123 660.73333740234375 663.70001220703125 666.46665445963537877 668.100006103515625 669.5999755859375 670.5 671.5 672 673.20001220703125 675.3499755859375 678.36667887369787877 680.70001220703125 682.850006103515625 684.649993896484375 687.3249969482421875 691.5250091552734375 696.06667073567712123 698.75 702.1750030517578125 706.19999186197912877 708.600006103515625 710.75 711.850006103515625 711.70001220703125 711.36665852864587123 711 710.9000244140625 710.9000244140625 710.899993896484375 710.76666259765625 710.899993896484375 590
620.4000244140625 621.9000091552734375 623 623.9000091552734375 625 626.0749969482421875 627.199981689453125 628 628.850006103515625 629.63334147135412877 630.29998779296875 630.43332926432287877 630.9666748046875 630.850006103515625 631.17498779296875 631.5 631.93332926432287877 632.03334554036462123 631.5999755859375 631.625 631.100006103515625 630.75 630.45001220703125 630.4000244140625 630.199981689453125 629.70001220703125 629.350006103515625 628.949981689453125 628.79998779296875 628.399993896484375 628.100006103515625 627.83335367838537877 627.550018310546875 627.5 627.199981689453125 626.9000244140625 626.70001220703125 626.36667887369787877 626.199981689453125 626 625.75 625.36667887369787877 625.100006103515625 624.5999755859375 624.5 624.29998779296875 624.20001220703125 624.04998779296875 623.79998779296875 623.56667073567712123 623.199981689453125 623 622.79998779296875 622.63332112630212123 622.4000244140625 622.29998779296875 622.20001220703125 622.29998779296875 622.29998779296875 622.399993896484375 622.25 622.20001220703125 622.149993896484375 622.25 622.350006103515625 622.29998779296875 622.600006103515625 622.83331298828125 623.29998779296875 623.9000244140625 625.0500030517578125 625.9000244140625 626.449981689453125 626.5999755859375 626.5 625.975006103515625 625.5 625.16666666666662877 624.25 624.29998779296875 624.45001220703125 625.20001220703125 626 627.399993896484375 628.600006103515625 629 629.449981689453125 629.79998779296875 630.45001220703125 631 631.550018310546875 632.20001220703125 633.33333333333337123 634.149993896484375 634.4499969482421875 635.050018310546875 635.975006103515625 636.45001220703125 636.95001220703125 637.96665445963537877 639.0999755859375 639.79998779296875 640.69999186197912877 641.29998779296875 643.99997965494787877 646.46665445963537877 648.949981689453125 651.20001220703125 653.100006103515625 655.4000244140625 658.149993896484375 660.86665852864587123 662.9666748046875 665.699981689453125 668.45001220703125 669 669.25 670.433349609375 671.199981689453125 672.59999593098962123 675.04998779296875 678.199981689453125 679.59999593098962123 681.4000244140625 683.75 687.899993896484375 691.9000244140625 694.59999593098962123 698.850006103515625 702.649993896484375 705.300018310546875 708.0999755859375 709.925018310546875 711.4000244140625 711.29998779296875 710.899993896484375 710.699981689453125 710.550018310546875 710.54998779296875 710.4000244140625 710.4000244140625 710.300018310546875 710.0999755859375
619.350006103515625 620.850006103515625 621.70001220703125 622.699981689453125 623.79998779296875 624.79998779296875 625.79998779296875 626.93332926432287877 627.79998779296875 628.43332926432287877 629.300018310546875 629.29998779296875 630 630.04998779296875 630.29998779296875 630.79998779296875 630.899993896484375 630.70001220703125 631 630.79998779296875 630.5 630.4000244140625 630 629.75 629.45001220703125 629.29998779296875 628.69999186197912877 628.5 628.30000813802087123 627.899993896484375 627.600006103515625 627.4000244140625 627.0999755859375 627 626.6249847412109375 626.25 626.09999593098962123 626 625.79998779296875 625.5999755859375 625.399993896484375 625.100006103515625 624.850006103515625 624.550018310546875 624.0999755859375 624.050018310546875 623.850006103515625 623.66666666666662877 623.399993896484375 623.199981689453125 622.800018310546875 622.600006103515625 622.399993896484375 622.19999186197912877 622 621.899993896484375 621.9000244140625 621.79998779296875 622 621.9000244140625 621.86665852864587123 621.70001220703125 621.70001220703125 621.70001220703125 621.79998779296875 621.79998779296875 622.0999755859375 622.449981689453125 623.04998779296875 623.45001220703125 624.5 625.29998779296875 625.6999969482421875 625.95001220703125 625.9000244140625 625.25 624.70001220703125 624.29998779296875 623.54998779296875 623.600006103515625 623.79998779296875 624.20001220703125 625.54998779296875 626.5999755859375 627.75 628.5 628.66666666666662877 629.36665852864587123 630.03334554036462123 630.449981689453125 630.90000406901037877 631.399993896484375 632.399993896484375 632.949981689453125 633.399993896484375 634.20001220703125 634.75 635.5 636.600006103515625 637.399993896484375 637.850006103515625 638.54998779296875 639.20001220703125 640.75 643.20001220703125 646.4000244140625 648.66666666666662877 650.75 653.350006103515625 655.69999186197912877 658.433349609375 660.5 662.949981689453125 664.850006103515625 668.29998779296875 668.79998779296875 668.79998779296875 669.550018310546875 670.5 672.45001220703125 674.550018310546875 676.60001627604162877 679.449981689453125 681.5 684.125 687.54998779296875 691.29998779296875 694.649993896484375 698.850006103515625 701.29998779296875 704.33333333333337123 707.23333740234375 709.9000244140625 711.149993896484375 710.93332926432287877 710.5999755859375 710.29998779296875 710.26666259765625 710.100006103515625 710.0999755859375 710 709.850006103515625 590
613 618.550018310546875 620.4666748046875 621.5 622.19999186197912877 623.49997965494787877 624.40000406901037877 625.45001220703125 626.45001220703125 627.33333333333337123 628.0999755859375 628.23331705729162877 628.933349609375 629.100006103515625 629.350006103515625 629.63334147135412877 629.899993896484375 630.100006103515625 630.25 630.20001220703125 630 629.70001220703125 629.29998779296875 629.199981689453125 628.79998779296875 628.79998779296875 628.5999755859375 628.300018310546875 627.850006103515625 627.5 627.149993896484375 626.949981689453125 626.73333740234375 626.5 626.0999755859375 625.850006103515625 625.5999755859375 625.433349609375 625.29998779296875 625.16668701171875 625.1500244140625 624.70001220703125 624.550018310546875 624.16666666666662877 623.850006103515625 623.70001220703125 623.45001220703125 623.29998779296875 623 622.86665852864587123 622.5 622.29998779296875 622 621.899993896484375 621.70001220703125 621.5 621.5 621.5 621.449981689453125 621.5 621.20001220703125 621.149993896484375 621.25 621.300018310546875 621.350006103515625 621.449981689453125 621.649993896484375 622 622.4000244140625 623.30000813802087123 624.20001220703125 624.70001220703125 625.04998779296875 625.20001220703125 624.90000406901037877 624.66666666666662877 624.100006103515625 623.5 622.9000244140625 622.79998779296875 623 623.79998779296875 624.9250030517578125 626.100006103515625 627 627.79998779296875 628.04998779296875 628.5999755859375 629.449981689453125 629.79998779296875 630.149993896484375 631 631.70001220703125 632.5 632.86667887369787877 633.36665852864587123 634.39998372395837123 635.13334147135412877 635.79998779296875 636.4000244140625 637 637.9666748046875 638.59999593098962123 640.69999186197912877 642.5333251953125 645.66668701171875 648.0999755859375 650.600006103515625 653 655.29998779296875 658.850006103515625 660.149993896484375 663.449981689453125 666.26668294270837123 667.5 668.1500244140625 668.050018310546875 668.70001220703125 669.649993896484375 671.25 674.149993896484375 677.050018310546875 679.13332112630212123 681.5999755859375 683.95001220703125 686.70001220703125 690.399993896484375 694.70001220703125 698.04998779296875 701.20001220703125 703.600006103515625 707.26666259765625 709.949981689453125 710.5 710.49997965494787877 710.149993896484375 709.949981689453125 709.9000244140625 709.70001220703125 709.66664632161462123 709.550018310546875 709.5 709.4000244140625
608.350006103515625 612.616668701171875 617.23333740234375 620.4000244140625 621.20001220703125 622.20001220703125 623.04998779296875 624.5 624.9000244140625 626 627.149993896484375 627.5999755859375 627.5999755859375 627.70001220703125 628 628.4000244140625 628.899993896484375 629.5999755859375 629.70001220703125 629.29998779296875 628.79998779296875 628.93332926432287877 628.79998779296875 628.9000244140625 628.79998779296875 628.5 628.149993896484375 627.5 627.25 627 626.800018310546875 626.4000244140625 626.23333740234375 626.20001220703125 625.6500091552734375 625.350006103515625 625.050018310546875 625 624.79998779296875 624.5999755859375 624.45001220703125 624.20001220703125 624.20001220703125 623.699981689453125 623.399993896484375 623.199981689453125 623.100006103515625 622.899993896484375 622.699981689453125 622.5 622.149993896484375 621.93332926432287877 621.5999755859375 621.600006103515625 621.399993896484375 621.29998779296875 621.149993896484375 621.149993896484375 621.0999755859375 620.89998372395837123 620.70001220703125 620.5999755859375 620.79998779296875 620.9000244140625 621 621 621.29998779296875 621.56667073567712123 622.050018310546875 622.4666748046875 623.29998779296875 624.04998779296875 624.3249969482421875 624.5 624.25 623.9000244140625 623.149993896484375 622.850006103515625 622.25 622.36667887369787877 622.29998779296875 623 624.449981689453125 625 626.0999908447265625 627.100006103515625 627.625 628.25 629.0333251953125 629.5333251953125 629.9666748046875 630.5999755859375 631.20001220703125 631.93332926432287877 632.70001220703125 633.25 633.79998779296875 634.8499755859375 635.699981689453125 636.100006103515625 636.850006103515625 637.4000244140625 638.399993896484375 640.29998779296875 642.20001220703125 644.54998779296875 647.25 650.5 652.29998779296875 654.6500091552734375 658 660.699981689453125 662.100006103515625 664.600006103515625 666.949981689453125 667.4000244140625 667.16666666666662877 668.29998779296875 669 670.79998779296875 673.1750030517578125 675.5999755859375 678.566650390625 680.649993896484375 682.79998779296875 687.25 690.23333740234375 694.350006103515625 698.39998372395837123 701.63334147135412877 705.19999186197912877 707.0999755859375 709.90000406901037877 710.20001220703125 710.25 709.9000244140625 709.59999593098962123 709.550018310546875 709.4000244140625 709.25 709.04998779296875 709.29998779296875 709
608.5 608.36665852864587123 612.14000244140629547 619.40000406901037877 619.96665445963537877 621.16666666666662877 621.699981689453125 622.83333333333337123 623.70001220703125 624.59999593098962123 625.29998779296875 626.16664632161462123 626.699981689453125 626.93332926432287877 626.70001220703125 627.09999593098962123 627.69999186197912877 628.29998779296875 628.76666259765625 629.350006103515625 628.79998779296875 628.79998779296875 628.9000244140625 628.699981689453125 628.54998779296875 628.5 627.5999755859375 627 626.70001220703125 626.5 626.3000030517578125 626.20001220703125 625.75 625.5 625.29998779296875 625 624.66666666666662877 624.399993896484375 624.20001220703125 624.0500030517578125 623.899993896484375 623.79998779296875 623.600006103515625 623.26668294270837123 623 622.699981689453125 622.70001220703125 622.5 622.26666259765625 622.20001220703125 621.800018310546875 621.5 621.43332926432287877 621.29998779296875 621.04998779296875 620.93332926432287877 620.800018310546875 620.70001220703125 620.649993896484375 620.46665445963537877 620.25 620.149993896484375 620.29998779296875 620.43332926432287877 620.449981689453125 620.5333251953125 620.79998779296875 621.20001220703125 621.4000244140625 622.03334554036462123 622.79998779296875 623.25 623.5999755859375 623.79998779296875 623.600006103515625 623.25 622.850006103515625 622.149993896484375 621.550018310546875 621.699981689453125 621.79998779296875 622.23333740234375 623.59999593098962123 624.79998779296875 625.70001220703125 626.600006103515625 627.5 628.1500244140625 629 629.4000244140625 629.5 629.96665445963537877 630.70001220703125 631.5 632.29998779296875 632.90000406901037877 633.63332112630212123 634.29998779296875 635.20001220703125 635.399993896484375 635.89998372395837123 636.399993896484375 637.5 639.649993896484375 641.76666259765625 644.20001220703125 647.09999593098962123 649.70001220703125 651.75 654.29998779296875 656.5 659.25 661.649993896484375 661.89998372395837123 664.29998779296875 665.5 666.75 667.4666748046875 668.5 670.40000406901037877 672.79998779296875 674.93332926432287877 677.5 681.050018310546875 683.5 686 690.83333333333337123 695.199981689453125 697.5999755859375 701 704.5333251953125 707.649993896484375 709.9000244140625 710 709.850006103515625 709.43332926432287877 709.149993896484375 709.20001220703125 708.9666748046875 708.850006103515625 708.70001220703125 708.649993896484375 708.5999755859375
607.23333740234375 608.5999755859375 608.45001220703125 611.725006103515625 616.30000813802087123 619.5999755859375 620.70001220703125 621.5 622.29998779296875 622.850006103515625 624.04998779296875 625 625.600006103515625 626.149993896484375 626.29998779296875 626.300018310546875 626.5999755859375 627.0999755859375 627.399993896484375 628.25 628.5999755859375 628.5999755859375 628.63332112630212123 628.45001220703125 627.79998779296875 627.29998779296875 626.83335367838537877 626.449981689453125 626.1500091552734375 625.9000244140625 625.79998779296875 625.56667073567712123 625.350006103515625 625.06667073567712123 624.83331298828125 624.399993896484375 624.20001220703125 624 623.75 623.5999755859375 623.4000244140625 623.300018310546875 623.0999755859375 622.83335367838537877 622.550018310546875 622.4000244140625 622.300018310546875 622.25 621.899993896484375 621.649993896484375 621.399993896484375 621.20001220703125 620.96665445963537877 620.79998779296875 620.649993896484375 620.5 620.25 620.20001220703125 620.149993896484375 620 619.9000244140625 619.79998779296875 619.79998779296875 619.9000244140625 620 620 620.29998779296875 620.5 620.75 621.4000244140625 622 622.39998372395837123 623.03334554036462123 623.0999755859375 623 622.5999755859375 621.850006103515625 621.36665852864587123 621 621.04998779296875 621 621.5 622.9000244140625 623.95001220703125 625.2249908447265625 626.25 627.0250091552734375 627.75 628.3000030517578125 629.04998779296875 629.0999755859375 629.19999186197912877 629.600006103515625 630.25 631.20001220703125 632.29998779296875 632.9000244140625 633.5 634.3499755859375 634.649993896484375 635.20001220703125 635.9000244140625 637 639.5 642.46665445963537877 644.5999755859375 646.75 649.1250152587890625 651.199981689453125 653.56667073567712123 656.29998779296875 657.5333251953125 659.4000244140625 660.5 662.36667887369787877 664.80000813802087123 666.4000244140625 666.79998779296875 668.050018310546875 669.70001220703125 671.80000813802087123 675.100006103515625 677.649993896484375 680.36667887369787877 684 686.36665852864587123 691.5333251953125 696 699.5333251953125 702.399993896484375 704.70001220703125 708.20001220703125 709.76666259765625 709.70001220703125 709.149993896484375 590 708.800018310546875 708.800018310546875 708.5999755859375 708.45001220703125 708.5999755859375 708.300018310546875 708.4000244140625
603.9000244140625 606.100006103515625 608.5999755859375 608.5 611.1999969482421875 616.649993896484375 618.86665852864587123 620 621 621.9000244140625 622.66666666666662877 623.350006103515625 623.9749908447265625 624.5999755859375 625.43332926432287877 625.40000406901037877 625.9000244140625 626.125 626.600006103515625 626.79998779296875 627.550018310546875 628.4000244140625 628.29998779296875 627.050018310546875 627.29998779296875 626.699981689453125 626.29998779296875 626 625.600006103515625 625.399993896484375 625.25 625.199981689453125 624.9000244140625 624.5999755859375 624.4000244140625 624.0999755859375 623.8499908447265625 623.550018310546875 623.5999755859375 623.20001220703125 623 622.79998779296875 622.800018310546875 622.53334554036462123 622.20001220703125 622.0999755859375 622 621.850006103515625 621.5999755859375 621.4000244140625 621.100006103515625 620.899993896484375 620.649993896484375 620.5 620.30000813802087123 620.100006103515625 619.79998779296875 619.75 619.5 619.5 619.5 619.46665445963537877 619.5999755859375 619.350006103515625 619.5 619.5 619.79998779296875 619.899993896484375 620.0999755859375 620.63332112630212123 621.20001220703125 621.800018310546875 622.20001220703125 622.449981689453125 622.13334147135412877 621.95001220703125 621.20001220703125 620.95001220703125 620.399993896484375 620.4000244140625 620.59999593098962123 621.149993896484375 621.75 623.449981689453125 624.5 625.5 626.4000244140625 627.149993896484375 627.70001220703125 628.20001220703125 628.449981689453125 628.699981689453125 629 629.949981689453125 630.95001220703125 631.5 632.32501220703125 633.04998779296875 633.5 633.949981689453125 634.10001627604162877 634.9666748046875 636.80000813802087123 639.63334147135412877 641.70001220703125 644.0999755859375 646.399993896484375 648.5999755859375 650.649993896484375 653.350006103515625 654.5 656.29998779296875 658.449981689453125 660.06667073567712123 662.29998779296875 664.79998779296875 666.5 667.09999593098962123 667.75 669.899993896484375 672.75 674.90000406901037877 677.600006103515625 680.399993896484375 683.699981689453125 687.449981689453125 691.0749969482421875 695.600006103515625 698.89998372395837123 703.399993896484375 705.75 708.09999593098962123 709.5 709.350006103515625 708.79998779296875 708.149993896484375 708.149993896484375 708.0999755859375 708.0999755859375 708.0999755859375 708.20001220703125 707.949981689453125 707.79998779296875
604.149993896484375 604.300018310546875 606.09999593098962123 608.5999755859375 608.5 609.06667073567712123 615 618.25 619.399993896484375 620.5 621.449981689453125 621.79998779296875 622.600006103515625 623.5999755859375 624.20001220703125 624.70001220703125 625.0999755859375 625.20001220703125 625.5 625.73333740234375 626 626.23333740234375 626.350006103515625 626.5999755859375 626.33333333333337123 626.100006103515625 625.79998779296875 625.5 625.199981689453125 624.8499755859375 624.5 624.79998779296875 624.45001220703125 624.0999755859375 623.975006103515625 623.79998779296875 623.399993896484375 623.0999755859375 623.100006103515625 622.79998779296875 622.600006103515625 622.600006103515625 622.4000244140625 622.149993896484375 622.0999755859375 621.76666259765625 621.70001220703125 621.49997965494787877 621.25 621.199981689453125 620.9000244140625 620.70001220703125 620.350006103515625 620.050018310546875 619.899993896484375 619.5 619.25 619.0999755859375 619.25 619 619 618.9000244140625 619.050018310546875 619 618.9000244140625 619 619.09999593098962123 619.5 619.600006103515625 619.949981689453125 620.5 621.16668701171875 621.399993896484375 621.70001220703125 621.5 621.4000244140625 620.93332926432287877 620.5 620 619.79998779296875 620 620.54998779296875 621.0999755859375 622.43332926432287877 623.09999593098962123 624.40000406901037877 625.43332926432287877 626.40000406901037877 627.06667073567712123 627.699981689453125 628 628.100006103515625 628.550018310546875 629.4499969482421875 630.4000244140625 630.9000244140625 631.899993896484375 632.5 633.09999593098962123 633.4000244140625 633.29998779296875 635.149993896484375 637.79998779296875 639.75 641.5 644.17498779296875 646.5 648.225006103515625 649.95001220703125 651.600006103515625 654.600006103515625 656.79998779296875 659.300018310546875 661.399993896484375 663.46665445963537877 665.29998779296875 666.899993896484375 667.5999755859375 668.76666259765625 670 672.20001220703125 675.100006103515625 677.850006103515625 680.399993896484375 682.90000406901037877 686.23333740234375 691.2249908447265625 695.5 699.46665445963537877 703.59999593098962123 707.449981689453125 709.300018310546875 709.100006103515625 709.0999755859375 708.399993896484375 708.0999755859375 708.0999755859375 708.0999755859375 708.20001220703125 708.0999755859375 707.79998779296875 707.4000244140625 707.5999755859375
604.29998779296875 604.29998779296875 604.20001220703125 606.5500030517578125 608.5999755859375 608.5999755859375 611.63332112630212123 612.149993896484375 617.80000813802087123 619.20001220703125 619.8000030517578125 620.350006103515625 621.07501220703125 622.149993896484375 622.6500091552734375 623.45001220703125 624.100006103515625 624.26666259765625 624.70001220703125 624.9000244140625 625.149993896484375 625.350006103515625 625.29998779296875 625.54998779296875 625.800018310546875 625.5 625.20001220703125 625 624.69999186197912877 624.4000244140625 624.29998779296875 624.20001220703125 623.9000244140625 623.79998779296875 623.54998779296875 623.25 623 622.70001220703125 622.449981689453125 622.5 622.300018310546875 622.4000244140625 622.06667073567712123 621.9000244140625 621.850006103515625 621.600006103515625 621.4000244140625 621.20001220703125 621.04998779296875 620.899993896484375 620.6249847412109375 620.300018310546875 620 619.649993896484375 619.449981689453125 619.0999908447265625 618.79998779296875 618.70001220703125 618.699981689453125 618.66666666666662877 618.600006103515625 618.600006103515625 618.5 618.550018310546875 618.399993896484375 618.5 618.79998779296875 618.9000244140625 619.04998779296875 619.5 619.9000244140625 620.25 620.4000244140625 620.699981689453125 620.86665852864587123 620.5999755859375 620.29998779296875 620 619.600006103515625 619.4000244140625 619.524993896484375 620 620.5 621.5 622.449981689453125 623.29998779296875 624.600006103515625 625.70001220703125 626.70001220703125 627.3499755859375 627.29998779296875 627.850006103515625 628.29998779296875 629 629.600006103515625 630.40000406901037877 631 632.149993896484375 632.399993896484375 632.399993896484375 633.149993896484375 634.4666748046875 636.70001220703125 639.1500244140625 641.70001220703125 644.149993896484375 646.600006103515625 648.5 651.0333251953125 653.0999755859375 656.050018310546875 658.199981689453125 660.19999186197912877 662.9000244140625 664.70001220703125 666.199981689453125 667.6999969482421875 668.29998779296875 669.20001220703125 670.949981689453125 672.73333740234375 674.149993896484375 676.800018310546875 679.550018310546875 682.4000244140625 686.89998372395837123 692.86667887369787877 696.350006103515625 700.16664632161462123 704 706.9749908447265625 708.79998779296875 708.79998779296875 708.75 708.29998779296875 708 707.79998779296875 707.800018310546875 707.850006103515625 707.73333740234375 707.25 706.949981689453125 707.0999755859375
604.550018310546875 604.5 604.350006103515625 604.29998779296875 605.6750030517578125 608.649993896484375 608.54998779296875 610.23333740234375 614.9499969482421875 617.79998779296875 618.199981689453125 618.79998779296875 619.600006103515625 620.800018310546875 621.5999755859375 622.0999755859375 623.04998779296875 623.5 623.75 624.0999755859375 624.350006103515625 624.600006103515625 624.70001220703125 624.600006103515625 625.06667073567712123 624.9000244140625 624.79998779296875 624.59999593098962123 624.4000244140625 624.03334554036462123 623.70001220703125 623.66666666666662877 623.4000244140625 623.29998779296875 623 622.9000244140625 622.550018310546875 622.5 622.050018310546875 622 622 621.75 621.70001220703125 621.600006103515625 621.5999755859375 621.29998779296875 621.16664632161462123 621.100006103515625 620.79998779296875 620.5999755859375 620.350006103515625 620 619.649993896484375 619.5 619.0999755859375 618.79998779296875 618.5 618.29998779296875 618.29998779296875 618.25 618.29998779296875 618.25 618.149993896484375 618.149993896484375 618.149993896484375 618.149993896484375 618.29998779296875 618.25 618.45001220703125 618.73333740234375 619.29998779296875 619.350006103515625 619.649993896484375 620.149993896484375 620 619.899993896484375 619.70001220703125 619.20001220703125 618.79998779296875 618.79998779296875 618.79998779296875 619.350006103515625 619.73333740234375 620.399993896484375 621.3499908447265625 622.45001220703125 623.5500030517578125 625.0999755859375 625.79998779296875 626.550018310546875 626.8499755859375 627.04998779296875 627.550018310546875 628.20001220703125 628.79998779296875 629.550018310546875 630.29998779296875 631.06667073567712123 631.600006103515625 631.70001220703125 632.29998779296875 634.1500244140625 636.23333740234375 639.20001220703125 642.300018310546875 644.23333740234375 646.83333333333337123 649.13334147135412877 651.3499755859375 653.600006103515625 656.29998779296875 659 661.29998779296875 664.0333251953125 665.54998779296875 667.600006103515625 668.4000244140625 668.850006103515625 669.699981689453125 671.100006103515625 672.5 673.5 676.26666259765625 679.25 682.6999969482421875 686.600006103515625 691.56667073567712123 695.4000244140625 697.93332926432287877 702.5 705.20001220703125 707.70001220703125 708.79998779296875 708.649993896484375 707.95001220703125 707.83333333333337123 707.70001220703125 707.75 707.5 707.199981689453125 706.79998779296875 706.59999593098962123 590
590 604.70001220703125 604.600006103515625 604.5 604.4000244140625 606.4666748046875 608.70001220703125 608.5999755859375 608.54998779296875 612.98570905412941556 616.90000406901037877 617.36667887369787877 618.70001220703125 619.20001220703125 620.100006103515625 621.149993896484375 621.75 622.20001220703125 622.5 623.19999186197912877 623.5 623.70001220703125 623.850006103515625 623.86665852864587123 623.9000244140625 624.29998779296875 624.29998779296875 624 623.8499755859375 623.600006103515625 623.100006103515625 623 623.0999755859375 623 622.5 622.4000244140625 622.19999186197912877 621.899993896484375 621.649993896484375 621.5 621.449981689453125 621.399993896484375 621.45001220703125 621.29998779296875 621.30000813802087123 621.20001220703125 621 620.70001220703125 620.56667073567712123 620.23331705729162877 620 619.6500091552734375 619.29998779296875 619.100006103515625 618.73333740234375 618.45001220703125 618.199981689453125 617.93332926432287877 617.899993896484375 617.850006103515625 617.800018310546875 617.70001220703125 617.70001220703125 617.699981689453125 617.79998779296875 617.79998779296875 617.79998779296875 617.75 617.9000244140625 618.199981689453125 618.5 618.8499755859375 618.9000244140625 619.23331705729162877 619.5999755859375 619.350006103515625 619.45001220703125 618.75 618.29998779296875 618.25 618.274993896484375 618.4000244140625 618.79998779296875 619.29998779296875 620.3499755859375 621.29998779296875 622.899993896484375 624.4000244140625 625.04998779296875 625.45001220703125 625.949981689453125 626.20001220703125 626.79998779296875 627.6500244140625 628.449981689453125 629.0333251953125 629.5 630.399993896484375 630.79998779296875 631.13334147135412877 632.50002034505212123 634.26666259765625 636.79998779296875 638.4666748046875 641.29998779296875 643.449981689453125 646.4000244140625 649.04998779296875 651 653.26666259765625 656.40000406901037877 658.699981689453125 661.899993896484375 665.20001220703125 666.199981689453125 668 669.04998779296875 669.43332926432287877 670.20001220703125 671.100006103515625 672.5500030517578125 674 676.149993896484375 678.649993896484375 682.4000244140625 685.66666666666662877 691.13334147135412877 694.36667887369787877 697.25 700.25 703.54998779296875 707.36665852864587123 708.4000244140625 707.9000244140625 707.79998779296875 707.54998779296875 707.300018310546875 707.29998779296875 706.9666748046875 706.76666259765625 706.350006103515625 705.93332926432287877 590
603.79998779296875 604.800018310546875 604.699981689453125 604.75 604.59999593098962123 604.600006103515625 605.25 607.69999186197912877 608.70001220703125 608.5999755859375 610.57501220703125 614.04998779296875 617.050018310546875 617.600006103515625 618.5 619.79998779296875 620.4000244140625 621.20001220703125 621.25 622 622.29998779296875 622.5 622.70001220703125 622.83333333333337123 623.20001220703125 623.399993896484375 623.70001220703125 623.600006103515625 623.29998779296875 623.03334554036462123 622.70001220703125 622.550018310546875 622.45001220703125 622.274993896484375 622 621.79998779296875 590 621.449981689453125 621.0999755859375 621.25 621.0999755859375 621 621.149993896484375 590 621.0333251953125 620.899993896484375 620.79998779296875 620.600006103515625 620.4000244140625 620.04998779296875 619.5999755859375 619.29998779296875 619.0333251953125 618.79998779296875 618.4000244140625 618.25 618 617.649993896484375 617.5999755859375 617.5999755859375 617.5 617.399993896484375 617.30000813802087123 617.350006103515625 617.20001220703125 617.16666666666662877 617.4000244140625 617.20001220703125 617.29998779296875 617.5000152587890625 617.6500244140625 617.8499755859375 618.1500244140625 618.600006103515625 618.600006103515625 618.600006103515625 618.79998779296875 618.30000813802087123 617.79998779296875 617.70001220703125 618 618 618.25 618.49997965494787877 619.399993896484375 620.225006103515625 621.600006103515625 622.699981689453125 623.54998779296875 624.600006103515625 625.43330891927087123 625.899993896484375 626.5500030517578125 627.70001220703125 628.5 629 629.4000244140625 629.95001220703125 630.0999755859375 630.899993896484375 632.79998779296875 634.449981689453125 636.39998372395837123 639.300018310546875 641 643.16666666666662877 646.06667073567712123 648.100006103515625 650.73333740234375 653.4000244140625 656.100006103515625 659.699981689453125 662.23333740234375 664.54998779296875 666.20001220703125 668.149993896484375 669.4000244140625 670.00002034505212123 670.5999755859375 671.850006103515625 673.0999755859375 674.4000244140625 676.149993896484375 678.5 681.43332926432287877 684.86665852864587123 688.70001220703125 693 696.0999755859375 699.29998779296875 703.29998779296875 706.4000244140625 707.899993896484375 707.70001220703125 707.350006103515625 706.850006103515625 706.449981689453125 706.149993896484375 705.899993896484375 705.5999755859375 705.4000244140625 705.16666666666662877 590
600.29998779296875 602.29998779296875 605 604.9000244140625 604.9000244140625 604.79998779296875 604.649993896484375 606.26666259765625 607.649993896484375 608.5999755859375 608.5999755859375 610.8800048828125 615.80000813802087123 616.45001220703125 617.06667073567712123 618.30000813802087123 618.800018310546875 619.5333251953125 620.149993896484375 620.5 621.050018310546875 621.20001220703125 621.5 621.850006103515625 622.350006103515625 622.70001220703125 622.9000244140625 623 622.9000244140625 622.70001220703125 622.29998779296875 622.199981689453125 622 621.649993896484375 621.5 621.25 621.20001220703125 620.9666748046875 620.5999755859375 620.9000244140625 620.600006103515625 620.66666666666662877 620.850006103515625 620.933349609375 620.79998779296875 620.9000244140625 620.83333333333337123 620.5999755859375 620.33333333333337123 619.86667887369787877 619.45001220703125 619.06667073567712123 618.70001220703125 618.43332926432287877 618.199981689453125 617.899993896484375 617.45001220703125 617.350006103515625 617.25 617.25 617.29998779296875 617.04998779296875 617 616.899993896484375 616.70001220703125 616.699981689453125 616.550018310546875 616.5 616.70001220703125 616.79998779296875 617 617.350006103515625 617.5 617.93332926432287877 618 618.0999755859375 618.04998779296875 617.649993896484375 617.0999755859375 617.30000813802087123 617.43332926432287877 617.5 617.449981689453125 617.5 618.5 619.5 620.70001220703125 622.20001220703125 623 623.9000244140625 624.899993896484375 625.29998779296875 626.100006103515625 627.5 627.96665445963537877 628.66668701171875 628.9000244140625 629.33331298828125 629.96665445963537877 631.350006103515625 633.25 634.4000244140625 636.550018310546875 639.0999755859375 641.20001220703125 644.100006103515625 646.4000244140625 648.25 651.20001220703125 653.66666666666662877 655.850006103515625 659.350006103515625 662.4000244140625 664.36665852864587123 666.40000406901037877 667.79998779296875 669.40000406901037877 670.4000244140625 670.96665445963537877 672.09999593098962123 673.350006103515625 675.00002034505212123 676.399993896484375 678.850006103515625 681.29998779296875 683.699981689453125 688.79998779296875 692.80000813802087123 696 699.43332926432287877 702.600006103515625 706.550018310546875 707.5 707.29998779296875 707 706.4000244140625 705.9666748046875 705.4000244140625 705.125 704.79998779296875 704.600006103515625 704.43332926432287877 590
600.4000244140625 600.4000244140625 603.1750030517578125 605.149993896484375 605.0999755859375 604.95001220703125 605 604.800018310546875 605.149993896484375 607.70001220703125 608.70001220703125 608.5999755859375 610.9250030517578125 612.024993896484375 616.0999755859375 616.5999755859375 617.3499755859375 618 618.70001220703125 619.54998779296875 619.79998779296875 619.9000244140625 620.36667887369787877 620.649993896484375 621.100006103515625 621.649993896484375 622 622.4000244140625 622.3499908447265625 622.149993896484375 621.9000244140625 621.63334147135412877 621.433349609375 621.20001220703125 620.899993896484375 620.66666666666662877 620.5999755859375 620.300018310546875 620.399993896484375 620.0999755859375 620.20001220703125 620.20001220703125 620.4000244140625 620.649993896484375 620.850006103515625 620.79998779296875 620.70001220703125 620.5 620.050018310546875 619.649993896484375 619.20001220703125 618.76666259765625 618.5 618.100006103515625 617.70001220703125 617.649993896484375 617.300018310546875 617 616.850006103515625 616.79998779296875 616.949981689453125 616.75 616.63334147135412877 616.5 616.23333740234375 616.20001220703125 615.9000244140625 615.899993896484375 616.20001220703125 616.19999186197912877 616.449981689453125 616.70001220703125 617.0999755859375 617.19999186197912877 617.5 617.56667073567712123 617.4000244140625 617.149993896484375 616.76666259765625 616.5 616.54998779296875 616.75 617.06667073567712123 617.149993896484375 618.0999908447265625 619.3499755859375 620.66666666666662877 621.70001220703125 622.4000244140625 623.600006103515625 624.449981689453125 624.95001220703125 625.649993896484375 626.54998779296875 627.5999755859375 628.149993896484375 628.699981689453125 629 629.5999755859375 630.95001220703125 633.149993896484375 635.19999186197912877 637.550018310546875 640.024993896484375 642.3499755859375 644.63334147135412877 646.79998779296875 649.1500244140625 650.699981689453125 653.899993896484375 656.5 659.06667073567712123 661.45001220703125 663.95001220703125 666 667.649993896484375 669.0999755859375 670.13332112630212123 670.75 671.79998779296875 672.9000244140625 674.649993896484375 677.050018310546875 679.43332926432287877 682.100006103515625 685.4000091552734375 689.5 692.550018310546875 695.9000244140625 700.04998779296875 703.56667073567712123 706.95001220703125 707 706.75 706.06667073567712123 705.9000244140625 705.16666666666662877 705 704.550018310546875 704.20001220703125 703.79998779296875 703.649993896484375 703.70001220703125
