ncols        98
nrows        87
xllcorner    714824
yllcorner    146286
cellsize     50
NODATA_value	-999
 1122.0 1103 1081 1066 1047 1027 1008 976 952 928 902 865 840 811 784 734 710 705 705 707 714 751 754 757 760 763 765 767 770 777 829 812 870 876 896 927 947 958 978 1018 998 975 940 943 971 998 1013 1035 -999 -999 -999 -999 -999 -999 -999 -999 -999 -999 -999 -999 -999 -999 -999 -999 -999 -999 -999 -999 -999 -999 -999 -999 -999 -999 -999 -999 -999 -999 -999 -999 -999 -999 -999 -999 -999 -999 -999 -999 -999 -999 -999 -999 -999 -999 -999 -999 -999 -999
 1116 1102 1082 1064 1049 1032 988 971 960 923 897 873 850 825 799 772 746 707 704 707 733 754 756 761 765 768 771 773 776 778.5 793 816 844 872 903 943 968 990 1010 1023 1000 952 928 949 999 1032 1050 1067 1042 1053 1047 1045 1060 1066 1088 1110 1156 1173 1183 1197 1199 1200 1211 1220 1237 1253 -999 -999 -999 -999 -999 -999 -999 -999 -999 -999 -999 -999 -999 -999 -999 -999 -999 -999 -999 -999 -999 -999 -999 -999 -999 -999 -999 -999 -999 -999 -999 -999
 1110 1083 1065 1045 1029 1014 993 966 943 904 878 859 838 809 786 764 729 716 704 704 711 744 755 763 764 769 772 776 779 780 786 836 861 886 915 955 982 1009 998 1003 975 952 923 933 966 1020 1082 1097 1110 1115 1116 1084.5 1102 1121 1106 1114 1140 1157 1168 1179 1184 1187 1195 1201 1207 1224 1240 1274 1286 1273 1279 1293 1300 -999 -999 -999 -999 -999 -999 -999 -999 -999 -999 -999 -999 -999 -999 -999 -999 -999 -999 -999 -999 -999 -999 -999 -999 -999
 1090 1067 1048 1029 1011 993 971 952 928 925 885 858 839 824 806 785 768 725 704 703 720 752 759 764 768 773 778 782 787 783 785 802 823 872 924 940 965 986 979 978 952 904 917 927 996 1046 1087 1117 1129 1139 1135 1124 1128 1133 1120 1132 1140 1148 1160 1168 1177 1182 1181 1188 1188 1205 1213 1227 1256 1243 1253 1270 1280 1293 1330 1338 1345 1346 1356 1367 -999 -999 -999 -999 -999 -999 -999 -999 -999 -999 -999 -999 -999 -999 -999 -999 -999 -999
 1078 1074 1049 1030 1011 992 971 951 925 880 865 845 827 815 798 783 772 750 721 704 704 730 756 764 764 774 778 781 787 793 792 800 837 876 902 925 936 960 954 971 946 901 910 950 969 1056 1103 1180 1192 1173 1179 1179 1152 1151 1134 1143 1127 1134 1141 1149 1156 1162 1169 1179 1185 1193 1200 1210 1228 1240 1253 1260 1270 1286 1306 1319 1324 1329 1342 1354 1359 1383 1399 1394 1406 1434 1461 -999 -999 -999 -999 -999 -999 -999 -999 -999 -999 -999
 1058 1038 1033 1013 996 973 955 928 900 880 865 853 833 824 808 795 781 765 742 703 705 738 755 761 770 775 783 788 795 800 798 801 807 882 900 920 913 937 932 907 888 895 894 940 976 1023 1130 1166 1214 1207 1209 1210 1209 1182 1162 1165.5 1169 1172 1155 1161 1164 1175 1181 1176 1185 1191 1201 1208 1215 1226 1236 1244 1259 1276 1278 1293 1317 1329 1339 1346 1349 1366 1374 1395 1426 1449 1475 1489 1549 1579 1609 1640 1670 -999 -999 -999 -999 -999
 1051.5 1042 1014 993 994 955 932 908 889 874 857 847 829 819 804 789 768 743 725 706 705 708 716 728 752 751 780 781 791 798 804 811 820 852 886 897 888 911 899 891 880 889 923 965 1004 1052 1121 1156 1242 1264 1276 1240 1246 1216 1219 1188 1195 1198 1203 1203 1216 1195 1193 1209 1210 1192 1199 1206 1214 1225 1232 1251 1251.5 1266 1278 1291 1316 1327 1333 1340 1337 1337 1359 1389 1417 1439 1465 1519 1533 1562 1621 1645 1673 1701 1729 1778 1810 -999
 1045 1021 1001 981 957 954 936 913 895 885 869 850 832 825 813 791 771 720 703 701 704 708 714 721 727 735 756 766 775 784 800 809 820 834 865 871 868.5 881 877.5 885 866 888 945 974 1014 1069 1181 1234 1274 1297 1301 1309 1281 1254 1251 1250 1221 1227 1225 1238 1238 1240 1231 1236 1238 1213 1211 1209 1218 1221 1229 1237 1244 1256 1263 1273 1284 1313 1320 1322 1325 1334 1346 1399 1425 1447 1464 1488 1518 1549 1598 1624 1652 1714 1746 1761 1831 1841
 1030 1001 983 977.5 965 945 920 903 894 880 859 841 815 795 796 769 751 726 700 692 701 728 732 734 733 735.5 738 752 764 777 786 797 803 823 815 850 849 854 856 878 893 924 985 1004 1048 1104 1160 1224 1305 1341 1321 1332 1309 1306 1298 1274 1276 1276 1283 1261 1260 1274 1280 1255 1263 1233 1225 1227 1222 1226 1232 1244 1247.5 1251 1259 1269 1277 1288 1298 1309 1322 1328 1348 1373 1402 1416 1441 1511 1540 1563 1605 1635 1663 1694 1713 1742 1750 1746
 1018 1013 993 974 951 928 915 909 898 886 864 837 818 798 778 751 705 702 691 694 707 741 749 757 759 736 744 747 755 769 773 786 802 830 821 819 830 828 839 910 913.5 946 981 1029 1082 1144 1235 1292 1340 1368 1355 1353 1333 1327 1327 1315 1296 1307 1307 1305 1294 1298 1299 1271 1278 1279 1250 1253 1246 1240 1242 1252 1251 1259 1270 1279 1287 1295 1296 1307 1317 1327 1337 1345 1351 1367 1388 1419 1441 1475 1539 1566 1634 1639 1660 1736 1716 1716
 1008 998 981 962 944 925 907 898 880 867 842 821 800 780 765 735 706 688 685 687 693 751 757 763 769 776 783 759 768 770 778 787 799 812 827 835 834 852 885 904 934 976 993 1022 1052 1167 1191 1270 1326 1389 1377 1375 1377 1355 1355 1356 1357 1357 1331 1339 1343 1325 1321 1291 1297 1299 1299 1276 1270 1277 1255 1271 1257 1269 1273 1287 1299 1310 1317 1314 1324 1333 1343 1358 1370 1386 1394.5 1387 1404 1431 1517 1558 1578 1603 1624 1690 1673 -999
 1004 992 979 950 939.5 930 909 884 863 843 833 823 784 764 745 714 690 681 690.5 692 722 748 753 758 765 772 780 787 795 795 802 802 809 814 825.5 827 838 858 905 925 941 975 1002 1021 1090 1162 1212 1264 1332 1403 1394 1391 1403 1387.5 1402 1382 1406 1384 1394 1367 1368 1371 1342 1342 1345 1319 1325 1319 1310 1312 1319 1289 1296 1318 1322 1292 1311 1314 1325 1322 1334 1347 1359 1374 1380 1386 1401 1404 1408 1427 1452 1476 1499 1524 1550 1592 1634 -999
 996 975 966.5 957 935 917 885 867 844 826 824 804 782 765 745 724 694 680 696 731 751 756 761 762 771 776 783 791 801 826 849 830 820 816 824 841 849 853 885 921 937 963 1032 1082 1115 1152 1186 1233 1337 1373 1423 1434 1439 1420 1426 1433 1435 1414 1419 1392 1388 1396 1372 1373 1373 1355 1368 1365 1373 1343 1346 1318 1327 1342 1350 1329 1334 1334 1355 1356 1351 1354 1360 1373 1390 1395.5 1420 1430 1438 1444 1444 1477 1510 1536 1566 1603 -999 -999
 981 973 954 935 923 901 879 861.5 842 825 804 782 764 747 727 701 677 684 722 767 759 774 766 767 773 781 783.5 787 797 822 832 839 843 838 839 839 842.5 842 858 900 924 964 1014 1056 1091 1134 1167 1247 1312 1366 1440 1455 1458 1444 1453 1459 1461 1440 1445 1445 1412 1413 1422 1402 1417 1391 1385 1395 1391 1365 1376 1378 1383 1360 1369 1371 1356 1347 1382 1376 1401 1415 1392 1392 1425 1405 1441 1451 1451 1464 1467 1460 1488 1516 1552 1588 -999 -999
 966 948 934 922 905 891.5 865 856 833 816 790 772 752 726 704 686 671 670 707 755 776 779 780 778 774 779 784 793 810 820 827 825.5 826 829 832.5 834 836 848 866 902 929 963 1000 1033 1103 1149 1172 1232 1257 1330 1371 1461 1479 1479 1489 1474 1481 1486 1466 1468 1465 1438 1445 1444 1455 1436 1443 1419 1415 1419 1405 1399 1400 1398 1394 1395 1408 1403 1380 1399 1401 1425 1440 1441 1453 1438.5 1466 1481 1466 1482 1487 1476 1496 1520 1550.5 -999 -999 -999
 948 928 917 911.5 907 882 860 839 816 799 772 752 730 711 687 676 667 664 706 756 781 784 786 786 776 781 782 787 804 811 813 812 814 822 826 818 829 837 851 889 916 944 982 1024 1087 1102 1144 1209 1277 1380 1404 1441 1480 1504 1511 1513 1506 1506 1505 1484 1482 1488 1477 1468.5 1477 1464 1457 1461 1439 1442 1445 1422 1417 1412 1414 1418 1432 1427 1413 1417 1432 1447 1468 1492 1469 1472 1499 1521 1517 1507 1502 1504 1496 1518 1549 -999 -999 -999
 929 910.5 911 901 892 868 845 823 817 797 778 756 737 710 689 674 663 674 705 723 779 783 786 792 778 779 782 789 798 807 805 807 811 813 818 818 825 839 875 891 915 959 975 1027 1067 1126 1155 1206 1244 1348 1399 1466 1505 1528 1534 1533 1520 1520 1519 1497 1503 1495 1507 1493 1507 1487 1490 1475 1457 1460 1465 1443 1438 1444 1445 1428 1439 1455 1447 1467 1463 1484 1499 1509.5 1516 1526 1530 1546 1535 1529 1548 1535.5 1550 1549 -999 -999 -999 -999
 901 893 897 891 866 847 824 804 785 777 758 742 719 696 674 671 660 660 745 782 790 800 808 797 778 777 780 783 795 802 794 802 808 816 818 818 830 844 851 866 890 909 956 993 1042 1085 1156 1181 1216 1286 1325 1427 1462 1534 1556 1558 1539 1556 1536 1541 1532 1526 1542 1525 1532 1535 1511 1499 1482 1470 1480 1488 1458 1465 1469 1468 1460 1484 1477 1489 1494 1501.5 1502 1527 1541 1562 1577 1572 1579 1561 1555 1567 1580 -999 -999 -999 -999 -999
 896.5 879 883 867 855 843 827 806 784 762 744 724 700 681 668 663 658 679 727 775 794 807 820 818 796 785 778 787 791.5 792 791 797.5 799 806 805 817 827 850 859 871 894 936 954 980 1047 1104 1188 1197 1236 1316 1356 1403 1446 1485 1520 1572 1577 1585 1558 1552 1557 1543 1548 1572 1554 1551 1531 1501 1504 1522 1504 1503 1505 1486 1486 1492 1495 1521 1527 1534 1544 1519 1538 1589 1577 1589 1608 1610 1615 1587 1590 1590 1636 -999 -999 -999 -999 -999
 892 889 867 849 844 824 806 787 772 749 729 714 688 671.5 662 655 660 675 697 787 798 824 828 819 810 774 773 777 788 782 786 793 791 800 810 811 824 847 861 887 890 916 934 959 1013 1080 1159 1186 1207 1289 1393 1404 1434 1463 1529 1540 1594 1598.5 1600 1577 1579 1568 1573 1590 1569 1565.5 1556 1527 1538 1544 1527 1528 1519 1532 1513 1513 1520 1550 1562 1583 1546 1563 1568 1593 1621 1615 1648 1633 1641 1624 1616 1640 -999 -999 -999 -999 -999 -999
 892 869 867 855 830 810 787 773 752 733 712 703.5 694 662 653 651 654 671 692 806 817 826 824 822 813 790 771.5 774 778 782 783 786 793 792.5 802 805 822 844 855 874 886 924 952 979 1005 1037 1090 1148 1178 1221 1321 1363 1399 1435 1487 1535.5 1596 1612 1622 1600 1599 1587 1591 1609 1608 1580 1567 1574 1556 1565 1564 1546 1533 1544 1549 1537 1558 1571 1593 1585 1576 1593 1599 1623 1648 1665 1677 1696 1677 1682 1668 1707 -999 -999 -999 -999 -999 -999
 882 865 850 832 819 799 772 767 748 731 714 693 670 648 655 653.5 663 671 695 757 814 838 829 824 821 797 770 768 773.5 775 780 780 786 785 795 804 813 836 869 876 902 940 968 1016 1047 1076 1097 1108 1179 1181 1238 1284 1320 1391 1446 1531 1562 1579 1632 1620.5 1614 1605 1621 1626.5 1629 1594 1598 1603 1575.5 1580 1583 1582 1566 1556 1569 1574 1581 1600 1608.5 1611 1608 1626 1625 1654 1678 1697 1708 1726 1710 1723 1723 -999 -999 -999 -999 -999 -999 -999
 870 851 853 827 786 776 758 753 735 711 691 670 649 645.5 651 656 650 662 721 778 840 843 835 826 811 797 786 762 769 768 771 776 777 788 793.5 803 813 848 883 903 928 936 1000 1050 1086 1115 1132 1178 1180 1250 1278 1304 1321 1376 1416 1450 1523 1553 1637 1641 1638 1653 1665 1644 1646 1647 1623 1618 1595 1599 1600 1587 1598 1583 1611 1628 1602 1608 1624 1639 1644 1659 1650 1655 1684 1733 1726 1736 1743 1751 1745.2000000000002728 -999 -999 -999 -999 -999 -999 -999
 873 847 818 810 782 748 746.5 759 734 738 701.5 689 643 643 641 650 648.5 657 712 786 849 848 841 838 813 772 762 758 762 764.5 766 772 774 779 792 802 816 830 863 886 932.5 950 983 1032 1128 1171 1167 1259 1299 1330 1314 1341 1363 1388 1412 1447 1485 1551 1611 1674 1667 1679 1689 1696 1675 1672 1669 1644 1632 1618 1634 1613 1609 1614 1639 1646 1631 1641 1652 1671 1678 1681 1683 1701 1708 1758 1788 1771 1794 1798 -999 -999 -999 -999 -999 -999 -999 -999
 867 841 829 769 789 758 735 731 746 743 712 705 682 640 638.5 639 647 661 728 814 861 860 846 845 831 800 759 755 756 761 761 766 771 773 779 800 819 840 874 905 937 967 995 1051 1084 1147 1233 1272 1338 1366 1348 1392 1411 1431 1426 1442 1518 1542 1582 1659 1697 1691 1702 1712 1693 1693 1686 1660 1650 1650 1654 1626 1633 1652 1641 1681 1660 1667 1699 1701 1731 1700 1716 1720 1740 1765 1815 1800 1819 1783.4000000000003183 -999 -999 -999 -999 -999 -999 -999 -999
 864 829 813 767 761 738 736 701 697 729 713 688 685 660 636 635 639 660 698 846 863.5 866 863 852 813 790 761 755 756 758 763 765 768 772 784 799 819 837 898 913 930 956 1020 1021 1090 1152 1203 1293 1320 1385 1421 1426 1446 1465 1453 1488 1496 1532 1605 1617 1677 1737 1723 1733 1737 1739 1713 1676 1687 1669 1669 1668 1662 1675 1696 1701 1677 1693 1726 1759 1764 1729 1747 1762 1766 1796 1825 1847 1865 -999 -999 -999 -999 -999 -999 -999 -999 -999
 844 820 804 779 750 738.5 717 689 678 711 695 676 670.5 665 647 633.5 635 638 751 831 866 863 863 858 837 822 768 755 756 760 762 768 771 778 781 794 817 849 872 939 937.5 986 1030 1052 1133 1185 1227 1251 1284 1350 1441 1479 1478 1495 1503 1506.5 1517 1549 1584 1657 1699 1764 1777 1756 1759 1759 1733 1707 1709 1689 1687 1706 1687 1682 1703 1722 1698 1722 1762 1791 1798 1770.5 1769 1808 1814 1795 1857 1888 1821.5999999999996817 -999 -999 -999 -999 -999 -999 -999 -999 -999
 831 804 797 765 738 739 700 713 680 662 677 660 656 643 643 632 633 732 755 826 862 867 845 854 818 790 754 755 757 758 765 773 776 783 793 813 837 860 872 916 945 997 1040 1058 1119 1183 1233 1261 1368 1360 1403 1443 1476.5 1516 1537 1525 1536 1569 1605 1636 1674 1749 1800 1781 1783 1794 1768 1757 1728 1723 1727 1729 1709 1709 1731 1744 1743 1757 1796 1851 1832 1812 1822 1836 1888 1844 1868 1900.1428571428571104 -999 -999 -999 -999 -999 -999 -999 -999 -999 -999
 805 788 754 744 728 730 722 709.5 699 664 661 654 644 640.5 629 631 653 738 762 849 858 851 827 835 808 792 753 756 758 763 770 781 781 790 797 806 835 881 894 924 953 996 1006 1033 1127 1207 1244 1300 1363 1429 1416 1443 1475 1581 1567 1574 1560 1590 1624 1658 1709 1725 1801 1824 1812 1813 1782 1767 1759 1744 1752 1768 1745 1749 1758 1768 1776 1759 1834 1894 1872 1852 1873 1875 1904 1881 1913 1859.7999999999997272 -999 -999 -999 -999 -999 -999 -999 -999 -999 -999
 796 772 740 734 724 726 716 706 683 665 641 648 637 638 627 642 718 741 787 842 825 855 828 803 777 754 751 756 762 768 771 779 790 804 810 824 835 873 904 936 983 1004 1021 1051 1146 1194 1231 1283 1372 1413 1433 1482 1512 1552 1595 1617 1599 1612 1640 1643 1687 1763 1807 1846 1838 1827 1817 1790 1790 1794 1775 1802 1778 1778 1781 1782 1797 1804 1871 1912 1904 1876 1897 1916 1932 1939 1935.2857142857142208 -999 -999 -999 -999 -999 -999 -999 -999 -999 -999 -999
 767 747 724 724 714 719 710 702 675 660.5 624 631 622 624 626 668 705 743 763 804 804 835 803 779 748 750.5 751 756 763 770 776 787 792.5 800 823 844 860 888 934 960 962 1018 1034 1074 1111 1223 1241 1294 1351 1414 1450 1517 1545 1573 1615 1645 1626 1642 1653.5 1661 1694 1723 1756 1858 1870 1841 1836 1838 1816 1833 1814 1822 1835 1804 1840 1815 1817 1854 1885 1938 1932 1911 1918 1928.5 1943 1955 1898 -999 -999 -999 -999 -999 -999 -999 -999 -999 -999 -999
 736 743 719 710 706 709 699 682 659 656 632 620 623.5 627 652 675 681 709 743 775 822 804 786 768 753 747 753 757 763 772 780 791 795 814 832 858 864 884 916 963.5 987 1014 1052 1090 1119 1151 1203 1312 1368 1399 1489 1525 1580 1608 1641 1666 1650 1664 1667 1693 1708 1747 1793 1831 1883 1889 1888 1865 1855 1865 1873 1856 1864 1841 1879 1869 1851 1900 1943 1944 1964 1969 1952 1941 1967 1970.4285714285713311 -999 -999 -999 -999 -999 -999 -999 -999 -999 -999 -999 -999
 717 721 712 701 702 700 688 672 651 645 616 625 625 628 638 653 657 690 729 757 809 787 785 769 744 751 756 759 766 780 791 794.5 807 827 848 867 878 899 909 967 995 1024 1062 1105 1141 1189 1241 1329 1370 1423 1440 1495 1592 1644 1673 1675 1713 1690 1715 1717 1736 1761 1775 1844 1903 1911 1924 1902 1887 1897 1904 1926 1901 1894 1898 1873 1909 1982 2010 2010 1999 1980 1992 1978 1997 1936.2000000000002728 -999 -999 -999 -999 -999 -999 -999 -999 -999 -999 -999 -999
 692 706 689 690 698 683 676 664 640 614 623 624.5 626 637 640 646 669 705 717.5 756 798 778 780 746 742 746 752 763 769.5 773 789 798 820 831 841 858 888 910 918 958 972 1028 1089 1142 1168 1178 1208 1291 1327 1391 1459 1493 1557 1594 1672 1705 1740 1713 1738 1736 1763 1780 1788 1856 1899 1946 1955 1932 1937 1956 1945 1962 1931 1924 1917 1935 1946 1981 2047 2048 2031 2049 2018 2009 2005.5714285714284415 -999 -999 -999 -999 -999 -999 -999 -999 -999 -999 -999 -999 -999
 698 660 672 685.5 684 674 667 652 633 613 621 624 629 633 641 650 654 684 706 750 768 768.5 742 739 742 749 760 768 773 784 796 803 827 835 852 869 900 914 931 962 986 1007 1092 1106 1166 1243 1277 1263 1340 1401 1442 1474 1525 1623 1654 1680 1737 1737 1753 1782 1787 1811 1810 1876 1933 1976 1979 1991 2001 1999 2002 1981 1958 1954 1982 1966 1981 2005 2080 2081 2104 2084 2053 2035.8499999999996817 1974.4000000000000909 -999 -999 -999 -999 -999 -999 -999 -999 -999 -999 -999 -999 -999
 688.5 681 664 681 670 653 658 639 615 613 622 626 631 636 648 652 659 663 727 721.5 743 759 735 733 741 751 759.5 767 776 794 809 811.5 831 844 864 880 888 918 946 970 1008 1022 1053 1080 1170 1214 1276 1302 1384 1422 1457 1476 1541 1592 1654 1710 1746 1768 1785 1805 1806 1834 1835 1905 1906 1965 1988 2019 2039 2031 2033 2009 2015 1991 2012 2001 2012 2043 2139 2103 2136 2118 2095 2040.7142857142855519 -999 -999 -999 -999 -999 -999 -999 -999 -999 -999 -999 -999 -999 -999
 679 661 662 667 651 640 636 613 613 613 614 626 638 642 651 654 664 677 696 693 717 714 722 726 739.5 751 759 776 784 799 805 820 837 847 864 891.5 897 915 938 965 987 1012 1067 1102 1132 1173 1232 1309 1374 1416 1442 1485 1506 1601 1634 1685 1719 1774 1803 1820.5 1829 1861 1861 1896 1929 1986 2010 2033 2080 2097 2072 2071 2041 2041 2020 2036 2056 2080 2125 2153 2146 2149 2074.7000000000002728 2012.5999999999999091 -999 -999 -999 -999 -999 -999 -999 -999 -999 -999 -999 -999 -999 -999
 656 640 648 653 638 637 623 612 612 611 611.5 618 637 645 651 655 666 673 683 690.5 700 711 717 731 738 757 761 774 785 794 808 830 846 853 863 903 916 947 966 983 986 1008 1060 1103 1154 1187 1238 1266 1313 1367 1425 1519 1554 1565 1627 1658 1722 1759 1811 1836 1855 1882 1886 1923 1945 2013 2039 2077 2115 2133 2130 2095 2064 2060 2053.5 2073 2088 2111 2153 2194 2177 2141 2075.8571428571426623 -999 -999 -999 -999 -999 -999 -999 -999 -999 -999 -999 -999 -999 -999 -999
 639 645 634 632 622 623 611 611 609 607 609 621 635 643 649 658 672 680 685 688 698 713 730 732 742 750 763 770 785 808 825 839 855 857 882 925 939 966 995 1012 1021 1035 1080 1118 1200 1233 1219 1274 1283 1363 1388 1453 1472 1535 1559 1665 1696 1759 1838 1874 1863 1912 1936 1941 1968 2030 2067.5 2103 2121 2164 2157 2129 2106 2105 2087 2102 2114 2145 2178 2214 2211 2113.5499999999997272 2050.7999999999997272 -999 -999 -999 -999 -999 -999 -999 -999 -999 -999 -999 -999 -999 -999 -999
 632 627 628 621.5 610 612 610 608 608 605 611 632 640 644 650 656 664 676 683 691 707 715 722 733 741 749 764 782 794 810 825 838 854 876 914 944 956.5 975 1023 1043 1052 1063 1055 1107 1231 1266 1304 1282 1324 1387 1412 1415 1499 1501 1596 1638 1692 1732 1807 1895 1920 1923 1948 1960 1981 2051 2096 2116 2140 2188 2191 2162 2134 2151 2117 2128 2150 2185 2206 2243 2167.9249999999997272 2111 -999 -999 -999 -999 -999 -999 -999 -999 -999 -999 -999 -999 -999 -999 -999 -999
 625 618 611 611 609 608 605 604 605 603 608 625 641 646 651 663 669 678 683 691 699 715 721 730 746 759 765 775 792 806 824 842 871 883 888 953 974 981 1034 1059 1078 1091 1118 1166 1249 1283 1338 1350 1349 1427 1453 1499 1526 1569 1581 1658 1722 1815 1890 1895 1932.5 1948 1960 1981 2017 2058 2106 2132 2156 2170 2227 2202 2199 2169 2155 2177 2182 2211 2237 2267 2152.4000000000000909 2089 -999 -999 -999 -999 -999 -999 -999 -999 -999 -999 -999 -999 -999 -999 -999 -999
 616 615.5 612 609 605 603 606 599 602 606 610 623 642 647.5 652 667 672.5 678 683 693 705 715 727 730.5 741 755 763.5 775 796 812 828 844 859 890 909 927 949 975 1010 1091 1100 1153 1117 1129 1250 1306 1368 1389 1388 1419 1505 1569 1561 1595 1650 1701 1787 1803 1852 1913 1945 1990 1981 2011 2052 2109 2125 2151 2168 2185 2261 2230 2228 2202 2194 2221 2201 2225 2265 2206.7750000000000909 2146.142857142856883 -999 -999 -999 -999 -999 -999 -999 -999 -999 -999 -999 -999 -999 -999 -999 -999 -999
 614 613 608 607 601 600 598 598 599 603 616.5 629 642 649 656 667 676 684 688 702 709 713 721 731 738 747 762 769 785 797 832 863 881 899 928 951 948 976 1012 1104 1140 1152 1147 1163.5 1217 1318 1381 1424 1460 1499 1532 1585 1596 1625.5 1671 1729 1821 1854 1869.5 1898 1918 1976 2006 2022 2074 2086 2138 2171 2179 2193 2228 2261 2260 2233 2233 2253 2231 2253 2285 2191.25 2127.2000000000002728 -999 -999 -999 -999 -999 -999 -999 -999 -999 -999 -999 -999 -999 -999 -999 -999 -999
 612.5 610 606 605.5 603 598 595 597 600 614 623 636 643 650 662 668.5 673 685 689 705 713 722 723 733 740.5 745 760 774.5 776 841 868 938 914 946 929 967 981 1012.5 1045 1063 1097 1136 1167 1198 1232 1270 1351 1402 1470 1529 1579 1583.5 1649 1656 1730 1753 1847 1886 1887 1916 1947 1980 2024 2051 2086 2148 2158 2187 2201 2206 2251 2292 2274 2279 2262 2280 2281 2276 2245.625 2181.2857142857146755 -999 -999 -999 -999 -999 -999 -999 -999 -999 -999 -999 -999 -999 -999 -999 -999 -999 -999
 611 606 603 604 596 593 595.5 598 605 613.5 624 635 642.5 649 656 670 677 691 698 708 712 730 732 741 743 751 762 780 817 884 917 946 945 972 995 983 1008 1049 1132 1172 1143 1177 1185 1214 1254 1298 1375 1471 1482 1491 1511 1582 1651 1684 1727 1790 1865 1921 1956 1954 1975 2014 2047 2044 2098 2146 2183 2201 2219 2222 2257 2336 2336 2309 2318 2307 2313 2300 2230.0999999999999091 2165.4000000000000909 -999 -999 -999 -999 -999 -999 -999 -999 -999 -999 -999 -999 -999 -999 -999 -999 -999 -999
 607 603 602 599 593 591 596 597.5 599 613 626 638 642 650 657 673 685 692.5 701 709 715 733 741 752 754 766 761 799 828 862 923 949 971 1002 1041 1024 1039 1080 1128 1207 1229 1242 1220 1251 1260 1338 1415 1502 1494 1517 1549.5 1591 1616 1647 1696 1765 1811 1905 1945 1973 2002 2010 2075 2067 2102 2166 2193 2215 2237 2238 2294 2346 2372 2341 2351 2364 2346 2284.4749999999994543 2216.4285714285711038 -999 -999 -999 -999 -999 -999 -999 -999 -999 -999 -999 -999 -999 -999 -999 -999 -999 -999 -999
 605 599 601 597 592 590 595 597 599 620 624 632 644 650 659 670 676 694 700 715 726 733 744 753 762 785 814 805 841 868 921 966 983 1008 1063 1057 1063 1092 1113 1195 1271 1267 1266 1290 1297 1334 1384 1471 1559 1556 1588 1620 1642 1660 1695 1725 1772 1848 1911 1931 1986 2042 2102 2092 2173 2186 2225 2229 2253 2261 2311 2352 2400 2407 2389 2395 2370 2268.9499999999998181 2203.5999999999999091 -999 -999 -999 -999 -999 -999 -999 -999 -999 -999 -999 -999 -999 -999 -999 -999 -999 -999 -999
 603 600 596 590 591 587 594 596 600 618 622 630 644 655 661 668 677 693 701 708 716 729 741 760 784 784 795 836 859 897 922 970 993 1017 1072 1090 1100 1118 1123 1251 1292 1306 1317 1324 1328 1351 1416 1474 1543 1600 1611 1678 1710 1707 1734 1718 1811 1851 1911 1954 1999 2062 2066 2122 2202 2205 2238 2247 2276 2301 2310 2341 2403 2443 2420 2426 2323.3249999999998181 2253.4250000000001819 -999 -999 -999 -999 -999 -999 -999 -999 -999 -999 -999 -999 -999 -999 -999 -999 -999 -999 -999 -999
 601 597 594 588 587 590 593 596 605 616 623 639 642.5 647 662 677 681 692 698.5 707 724 737 751 783 808 783 812 843 879 877 948 979 994 1016 1074 1093 1146 1150 1150 1203 1254 1274 1316 1356 1397 1363 1387 1522 1503 1560 1636 1706 1739 1740 1771 1800 1837 1880 1945 1995 2038 2062 2107 2148 2184 2224 2253 2270 2286 2310 2327 2367 2400 2474 2448 2433 2307.8000000000001819 2241.7999999999997272 -999 -999 -999 -999 -999 -999 -999 -999 -999 -999 -999 -999 -999 -999 -999 -999 -999 -999 -999 -999
 598 595 594 586 586 588 593 596 601 614 623 631 641 646 656 668 675 683 696 698 736 745 774 800 822 802 823 844 897 924 946 1001 1011 1041 1076 1097 1126 1169 1209 1211 1274 1319 1333 1414 1432 1444 1466 1525 1551 1576 1653 1716 1743 1803 1808 1838 1825 1898 1949 1983 2077 2115 2148 2187 2211 2243 2273 2286 2286 2315 2372 2382 2420 2446 2475 2377.75 2292.2749999999996362 -999 -999 -999 -999 -999 -999 -999 -999 -999 -999 -999 -999 -999 -999 -999 -999 -999 -999 -999 -999 -999
 598 592 592 585 585 586 592 596.5 601 614 622 632 635 652 654.5 671 678 684.5 690 700 705 753 765 796 824 828 833 840 885 897 937 969 1020 1067 1100 1114 1151 1203 1223 1279 1309 1359 1378 1395 1423 1515 1539 1600 1593 1614 1679 1686 1744 1774 1849 1894 1896 1930 1972 2021 2088 2148 2227 2230 2251 2274 2271 2319 2304 2335 2395 2409 2445 2451 2496 2346.6500000000005457 2280 -999 -999 -999 -999 -999 -999 -999 -999 -999 -999 -999 -999 -999 -999 -999 -999 -999 -999 -999 -999 -999
 596 595 589 585 583 588 591.5 597 600 605 618 625 637 646 653 670 675 686 702 721 738 734 754 782 790 807 864 883 905 939 918 936 1024 1092 1135 1169 1178 1230 1259 1271 1350 1353 1397 1429 1509 1544 1582 1623 1656 1651 1691.5 1707 1745 1786 1874 1885.5 1921 1923 2001 2056 2131 2159 2200 2301 2286 2305 2296 2334.5 2342 2382 2423 2449 2474 2482 2470.5 2331.125 -999 -999 -999 -999 -999 -999 -999 -999 -999 -999 -999 -999 -999 -999 -999 -999 -999 -999 -999 -999 -999 -999
 595 592 586 584 581 584 591 594 596 604 617 628 635 644 662 668.5 678 692 712 716 733 758 788 772 798 829 843 864 920 948 982 974 988 1054 1108 1144 1205 1237 1276 1331 1375 1393 1423 1448 1490 1577 1582 1645 1680 1712 1704 1735 1764 1788 1848 1877 1932 1987 2038 2074 2134 2187 2218 2289 2320 2351 2329 2350 2377 2415 2481 2471 2491 2505 2385.5 2318.2000000000002728 -999 -999 -999 -999 -999 -999 -999 -999 -999 -999 -999 -999 -999 -999 -999 -999 -999 -999 -999 -999 -999 -999
 594 590 585.5 583 579 584 588 591 598 603 608 622 633 640 650 667 679 704 717 729 743 785 800 831 835 861 857 886 927 961 1004 1024 1071 1035 1086 1137 1177 1232 1297 1305 1355 1396 1448 1475 1522 1599 1635 1674 1714 1749 1740 1798 1784 1811 1859 1887 1929 2012 2028 2083 2177 2202 2259 2303 2354 2373 2393 2380 2399 2435 2473 2506 2507 2533.5 2369.9749999999999091 -999 -999 -999 -999 -999 -999 -999 -999 -999 -999 -999 -999 -999 -999 -999 -999 -999 -999 -999 -999 -999 -999 -999
 592 589 585 580 578.5 579 583 589 593 598 613 615 630 636.5 645 676 701 701 717 731 750 759 779 805 852 861 874 944 999 999 1024 1035 1115 1109 1138 1108 1210 1243 1280 1353 1379 1416 1455 1481 1526 1571 1638 1701 1702 1762 1783 1812 1829 1838 1877 1919 1964 1978 2054 2098 2126 2198 2264 2278 2358 2400 2410 2408 2439 2463 2487 2518 2509 2470.6666666666669698 2356.4000000000005457 -999 -999 -999 -999 -999 -999 -999 -999 -999 -999 -999 -999 -999 -999 -999 -999 -999 -999 -999 -999 -999 -999 -999
 590 584 581 578 578 577 576 583 588 596 606 608 623 633 652 691 703 711 727 755 777 778 802 828 861 890 910 920 980 1031 1052 1041 1115 1144 1177 1139 1180 1256 1292 1321 1353 1407 1492 1523 1555 1598 1655 1672 1764 1795 1797 1837.5 1873 1871 1909 1910 2000 2037 2051 2134 2194 2230 2266 2345 2383 2417 2422 2436 2463 2485 2505 2536 2535 2408.8249999999998181 -999 -999 -999 -999 -999 -999 -999 -999 -999 -999 -999 -999 -999 -999 -999 -999 -999 -999 -999 -999 -999 -999 -999 -999
 588 585 581 579 576 575 580 579 583 592 597 613 622 640 657 691 702 714 726 761 773 790 825 848 858 917 941 970 979 997 1047 1082 1100 1129 1215 1194 1166 1235 1302 1332 1340 1439 1488 1541 1579 1613 1672 1732 1741 1824 1830 1863 1901 1921 1943 1927 1975 2002 2075 2152 2199 2234 2301 2348 2375 2409 2434 2453 2482 2502 2529 2571 2571 2394.5999999999994543 -999 -999 -999 -999 -999 -999 -999 -999 -999 -999 -999 -999 -999 -999 -999 -999 -999 -999 -999 -999 -999 -999 -999 -999
 585 582 581 580 574 573.5 572 577 579 589.5 593 606 621 635 654 672 690 707 716 738 769 784 836 850.5 869 909 946 985 995 1002.5 1010 1095 1105 1157 1200 1224 1203.5 1242 1271 1306 1355 1441 1521 1559 1603 1640 1690 1752 1770 1864 1891 1885 1933 1955 1972 2008 1993 2029.5 2062 2111 2171 2222 2280 2356 2389 2411 2435 2468 2488 2528 2560 2580 2470.8333333333330302 -999 -999 -999 -999 -999 -999 -999 -999 -999 -999 -999 -999 -999 -999 -999 -999 -999 -999 -999 -999 -999 -999 -999 -999 -999
 583 579 579 577 573 572 571 576 576 587 589 604 620 643 662 670 685 704 728 746 767 791 837 853 875 913 940 992 1022 1035.5 1049 1125 1121 1154 1206 1249 1241 1254 1294 1288 1332 1390 1475 1531 1607 1635 1700 1729 1781 1803 1859 1849 1913 1916 1948 2017 2034 2057 2084 2122 2159 2213 2252 2314 2383 2404 2415 2463 2490 2520 2536 2514 2432.7999999999997272 -999 -999 -999 -999 -999 -999 -999 -999 -999 -999 -999 -999 -999 -999 -999 -999 -999 -999 -999 -999 -999 -999 -999 -999 -999
 580 578 577 573 571 571 568 574 573 582 586.5 594 620 641 661 676 688 711 722 728 768 792 837 861 901 930 972 1009 1044 1061 1087 1109 1137 1173 1187 1222 1248 1277 1322 1356 1388 1419 1454 1523 1550 1609 1633 1711 1747 1765 1815 1836 1872 1881 1948 1982 2049 2096 2117 2157 2197 2247 2280 2302 2336 2377 2400 2436 2461 2526 2504 2492.5 -999 -999 -999 -999 -999 -999 -999 -999 -999 -999 -999 -999 -999 -999 -999 -999 -999 -999 -999 -999 -999 -999 -999 -999 -999 -999
 578 576 574 572 571 570 567.5 571 571 578 584 593 611 648 669 676 701 723 720 736 771 818 836.5 865 887 927 960 1008 1026 1053 1108 1134 1152 1154 1198 1218 1267 1316 1293 1347 1390.5 1424 1482 1521 1574 1590 1616 1662 1698 1749 1789 1816 1860 1890 1906 1924 1978 2068 2128 2160 2173 2206 2249 2295 2300 2350 2378 2431 2460 2501 2461 2471 -999 -999 -999 -999 -999 -999 -999 -999 -999 -999 -999 -999 -999 -999 -999 -999 -999 -999 -999 -999 -999 -999 -999 -999 -999 -999
 575 574 571 570 569 567 567 568 572 575 579 593 635 658 667 683 699 722 732 745 781 794 836 864 906 939 970 990 1030 1062 1100 1133 1152 1175 1209 1250 1307 1327 1347 1362 1393 1418 1475 1507 1597 1635 1628 1658 1708 1736 1767 1785 1848 1861 1931 1946 1979 2023 2041 2060 2099 2176 2231 2235 2296 2353 2386 2409 2490 2468 2474 -999 -999 -999 -999 -999 -999 -999 -999 -999 -999 -999 -999 -999 -999 -999 -999 -999 -999 -999 -999 -999 -999 -999 -999 -999 -999 -999
 572 572 571 568 570 567 566 565 569 569 574 594 615 634 651 662 698 702 726 758 781.5 796 815 861 886 918 962 982 1037 1065 1082 1125 1174 1180.5 1212 1259 1303 1333 1366 1394 1414 1447 1437 1529 1605 1657 1690 1691 1746 1747 1774 1806 1841 1891 1922 1963 1981 2011 2078 2102 2103 2152 2202 2239 2270 2333 2418 2429.5 2472 2477 2457.4705882352936896 -999 -999 -999 -999 -999 -999 -999 -999 -999 -999 -999 -999 -999 -999 -999 -999 -999 -999 -999 -999 -999 -999 -999 -999 -999 -999 -999
 571 571 569 567 567 567 564 564 565 569 582 596 610 620 651 662.5 676 695 727 742 782 809 844 875 888 916 962 1004 1022 1071 1083 1130 1161 1186 1238 1261 1315 1334 1356 1412 1444 1478 1502 1541 1564 1624 1695 1722 1750 1773 1812 1846 1875 1915 1994 2032 2058 2059 2113 2148 2134 2184 2171 2242 2266 2334 2399 2450 2483 2465.8000000000001819 -999 -999 -999 -999 -999 -999 -999 -999 -999 -999 -999 -999 -999 -999 -999 -999 -999 -999 -999 -999 -999 -999 -999 -999 -999 -999 -999 -999
 574 569 568.5 567 565 565 563 563 563 562 571 578 606 623 655 663 685 710 749 766 795 804 836 872 900 921 978 1010 1037 1077 1108 1149 1169 1183 1234 1273 1296 1335 1380 1414 1440 1503 1530 1578 1609 1624 1656 1701 1781 1817 1833 1872 1903 1937 1981 2028 2093 2081 2157 2178 2170 2231 2217 2274 2313 2328 2380 2420 2470 2443.9411764705882888 -999 -999 -999 -999 -999 -999 -999 -999 -999 -999 -999 -999 -999 -999 -999 -999 -999 -999 -999 -999 -999 -999 -999 -999 -999 -999 -999 -999
 575.5 571 568 565 563 562 562 562 560 561 570 586 605 642 658 673 677 690 728 734 755 803 829 852 894 923 955 1012.5 1036 1073 1096 1128 1171.5 1193 1222 1270 1293 1340 1395 1437 1462 1500 1559 1582 1611 1650 1688 1735 1796 1825 1865 1893 1907 1964 2014 2056 2131 2155 2185 2211 2245 2281 2261 2279 2312 2393 2408 2449 2456.4000000000000909 -999 -999 -999 -999 -999 -999 -999 -999 -999 -999 -999 -999 -999 -999 -999 -999 -999 -999 -999 -999 -999 -999 -999 -999 -999 -999 -999 -999 -999
 577 569 568 564 563 561 560 560 561 562 569 582 604 622 644 663 671.5 680 693 741 757 799 825 845 873 929 955 1015 1028 1085 1108 1137 1174 1204 1240 1267 1286 1339 1367 1417 1496 1530 1560 1590 1652 1665 1716 1749 1787 1820 1830 1873 1971 1976 2029 2085 2158 2191 2210 2251 2288 2315 2292 2343 2355 2410 2448 2448 2430.4117647058824332 -999 -999 -999 -999 -999 -999 -999 -999 -999 -999 -999 -999 -999 -999 -999 -999 -999 -999 -999 -999 -999 -999 -999 -999 -999 -999 -999 -999 -999
 577 569 570 566 562 561 558 560 557 558 571 579 600 622 638 648 666 673 712 740 745.5 782 824 852 902 924 959 951 1025 1049 1079 1119 1151 1195 1218 1259 1276 1325 1359 1416 1474 1527 1543 1594 1625 1678 1727 1767 1815 1815 1858 1914 1987 2028 2060 2113 2185 2233 2228 2316 2360 2334 2363 2366 2399 2412 2448.5 2447 -999 -999 -999 -999 -999 -999 -999 -999 -999 -999 -999 -999 -999 -999 -999 -999 -999 -999 -999 -999 -999 -999 -999 -999 -999 -999 -999 -999 -999 -999
 579 573 571 567 565 561 556 557 557 556 570 579 593 618 615 645 660 677 690 712 734 785 825 842 859 886 928 980 1044 1078 1100 1140 1183 1200.5 1222 1265 1300 1332 1355 1413 1472 1508 1530 1559 1626 1697 1715 1798 1831 1866 1921 1935 2006 2039 2127 2174 2230 2298 2294 2329 2351 2377 2354 2422 2441 2481 2449 2416.8823529411761228 -999 -999 -999 -999 -999 -999 -999 -999 -999 -999 -999 -999 -999 -999 -999 -999 -999 -999 -999 -999 -999 -999 -999 -999 -999 -999 -999 -999 -999 -999
 580 575 572 565 560 559 555 556 557 556 555 583 594 606 617 628 656 674 698 721 749 781 802 822 890 924 956 980 1039 1074 1095 1142 1162 1206 1249 1278 1294 1361 1379 1412 1452 1479 1573 1636 1673 1704 1762 1784 1814 1903 1944 1950 2039 2064 2099 2198 2211 2294 2328 2363 2379 2394 2420 2417 2456 2489 2464 -999 -999 -999 -999 -999 -999 -999 -999 -999 -999 -999 -999 -999 -999 -999 -999 -999 -999 -999 -999 -999 -999 -999 -999 -999 -999 -999 -999 -999 -999 -999
 579 572 569 565 558 557 553 554 556 555 560 583 594 604 612 633.5 643 678 706 735 759 803 810 842 874 901 947 971 1035 1070 1115 1136 1158 1208 1231 1311 1342 1360 1394 1450 1489 1499 1556 1655 1671 1738 1775 1805 1840 1880 1963 2013 2069 2102 2124 2163 2232 2300 2349 2402 2431 2441 2448 2483 2491 2481 2403.3529411764702672 -999 -999 -999 -999 -999 -999 -999 -999 -999 -999 -999 -999 -999 -999 -999 -999 -999 -999 -999 -999 -999 -999 -999 -999 -999 -999 -999 -999 -999 -999 -999
 575 571.5 570 565 557 555 552 552 552 553 556 577 594 604 622 639 652 688 707 738 785 809 831 872 896 926 928 959.5 1003 1062 1108 1130 1181 1211 1237 1290 1346.5 1367 1425 1457 1493 1557 1570 1629 1708 1737 1814 1827 1866 1901 1998 2040 2089 2143 2129 2201 2204 2268 2380 2414 2452 2485 2486 2511 2491 2450.7272727272729753 -999 -999 -999 -999 -999 -999 -999 -999 -999 -999 -999 -999 -999 -999 -999 -999 -999 -999 -999 -999 -999 -999 -999 -999 -999 -999 -999 -999 -999 -999 -999 -999
 572 571 567 565 555 554 552 550 549 551 558 570 585 595 618 635 649 685 711 740 764 810 833 855 902 896 925 948 999 1050 1100 1127 1176 1205 1268 1293 1351 1379 1405 1465 1523 1556 1608 1630 1693 1789 1802.5 1840 1884 1929 1979 2055 2083 2163 2208 2235 2243 2294 2357 2452 2481 2510 2513 2528 2499 2389.8235294117644116 -999 -999 -999 -999 -999 -999 -999 -999 -999 -999 -999 -999 -999 -999 -999 -999 -999 -999 -999 -999 -999 -999 -999 -999 -999 -999 -999 -999 -999 -999 -999 -999
 574 570 569 563 558 552 551 550 548 551 554 557 578 590 601 627 642 685 714 741 757 802 822 838 867 908 912 948 1017 1035 1095 1124 1176 1201 1233 1291 1343 1378 1410 1438 1494 1589 1612.5 1642 1699 1730 1791 1854 1876 1957 1988 2040 2127 2189 2233 2283 2309 2347 2419 2477 2484 2557 2537 2516.5 2437.4545454545454959 -999 -999 -999 -999 -999 -999 -999 -999 -999 -999 -999 -999 -999 -999 -999 -999 -999 -999 -999 -999 -999 -999 -999 -999 -999 -999 -999 -999 -999 -999 -999 -999 -999
 578 574 572 567 555 550 548.5 550 547 549 550 550 568 583 598 615 638 658 692 719 730 770 772 816 842 870 934 981 1006 1062 1102.5 1124 1170 1187 1223 1284 1318 1348 1377 1431 1454 1565 1617 1676 1702 1772 1826 1858 1916 1932 2017 2063 2097 2156 2237 2313 2350 2386 2464 2515 2553 2564 2534 2487.5 2376.294117647058556 -999 -999 -999 -999 -999 -999 -999 -999 -999 -999 -999 -999 -999 -999 -999 -999 -999 -999 -999 -999 -999 -999 -999 -999 -999 -999 -999 -999 -999 -999 -999 -999 -999
 583 578 576 571 560 552 546 548 546.5 547 548 549 562 576 595 616 627 651 658 676 716 745 754 808 846 876 924 983 1036 1064 1110 1137 1179 1204 1207 1259 1290 1350 1407 1440 1497 1571 1626 1684 1736 1773 1829 1885 1950 1991 2047 2079 2116 2176 2242 2307 2371 2465 2513 2554 2567 2544 2554 2424.1818181818180165 -999 -999 -999 -999 -999 -999 -999 -999 -999 -999 -999 -999 -999 -999 -999 -999 -999 -999 -999 -999 -999 -999 -999 -999 -999 -999 -999 -999 -999 -999 -999 -999 -999 -999
 587 582 580 574 551 548 547 546 546 545 546.5 547 562 581 596 610 635 642 673 706 730 744 775 809 836 895 917 966 1000 1034 1095 1162 1182 1210 1233 1248 1288 1361 1420 1452 1578 1612 1634 1689 1726 1771 1852 1902 1954 1979 2021 2077 2111 2179 2280 2347 2408 2436 2454 2514 2547 2516 2476 2362.7647058823527004 -999 -999 -999 -999 -999 -999 -999 -999 -999 -999 -999 -999 -999 -999 -999 -999 -999 -999 -999 -999 -999 -999 -999 -999 -999 -999 -999 -999 -999 -999 -999 -999 -999 -999
 591 586 582 577 562 550 544 546 543 544 545 547 550 581 598 597 644 659 690 713 752 759 803 824 838 881 904 935 970 989 1052 1119 1167 1193 1231 1255 1315 1361 1416 1481 1511 1582 1640 1701 1756 1801 1821 1905 1953 2016 2041 2073 2137 2193 2258 2314 2357 2367 2431 2472 2523 2515 2411.4999999999995453 -999 -999 -999 -999 -999 -999 -999 -999 -999 -999 -999 -999 -999 -999 -999 -999 -999 -999 -999 -999 -999 -999 -999 -999 -999 -999 -999 -999 -999 -999 -999 -999 -999 -999 -999
 595 589 587 581 571 566 546 544 544 542 543 543 557 569 581 595 630 660 686 732 748.5 769 775 815 834 857 894.5 914 956 1026 1087 1143 1149.5 1179 1227 1290 1324 1355 1425 1491 1549 1607 1643 1691 1733 1800 1831 1925 1957 2001 2047 2069 2129 2148 2253 2278 2319 2349 2394 2454 2495 2464.5 2349.3636363636360329 -999 -999 -999 -999 -999 -999 -999 -999 -999 -999 -999 -999 -999 -999 -999 -999 -999 -999 -999 -999 -999 -999 -999 -999 -999 -999 -999 -999 -999 -999 -999 -999 -999 -999 -999
 598 593 589 583 572 570 546 543 543 541 544 542 558 567 578 607 634 655 679 706 745 748 780 790 827 848 885 893 948 980 1059 1119 1132 1155 1218 1254 1294 1354 1420 1494 1554 1582 1667 1709 1750 1770 1830 1846 1923 1975 2025 2050 2092 2171 2207 2234 2288 2319 2374 2461 2476 2400 -999 -999 -999 -999 -999 -999 -999 -999 -999 -999 -999 -999 -999 -999 -999 -999 -999 -999 -999 -999 -999 -999 -999 -999 -999 -999 -999 -999 -999 -999 -999 -999 -999 -999 -999 -999
 600 594 591 586 576 571 556 542 542 538 541 540 550 569 578 589 605 636 672 695 716 746 756 790 822 833 881 901 951 1003 1039 1053 1091 1145 1191 1284 1323 1355 1416 1474 1555 1614 1646 1680 1777 1810 1845 1878 1914 1965 1994 2060 2109 2142 2171 2226 2247 2316 2376 2440 2453 2336.0909090909090082 -999 -999 -999 -999 -999 -999 -999 -999 -999 -999 -999 -999 -999 -999 -999 -999 -999 -999 -999 -999 -999 -999 -999 -999 -999 -999 -999 -999 -999 -999 -999 -999 -999 -999 -999 -999
 599 596 592 587 576 571 566 550 542 537 537 538 546 557 574 598 610 655 685 731 740 768 773 810 830 858 879 903 946 970 1019 1064 1097 1125 1181 1259 1305 1343 1430 1542 1534 1578 1654 1684 1718 1782 1846 1895 1915 1970 2000 2059 2085 2146 2172 2170 2233 2253 2288 2428 2388.5 -999 -999 -999 -999 -999 -999 -999 -999 -999 -999 -999 -999 -999 -999 -999 -999 -999 -999 -999 -999 -999 -999 -999 -999 -999 -999 -999 -999 -999 -999 -999 -999 -999 -999 -999 -999 -999
 593 593 584 582 574 570 565 552 546 540 536 538 537 546 561 584 602 637 675.5 702 705 766 778 801 815 836 877 895 941.5 964 1002 1032 1104 1173 1201 1261 1321 1377 1482 1553 1587 1602 1646 1678 1707 1788 1840 1890 1910 1931 2003 2058 2088 2092 2143 2151 2189 2238.5 2280 2295 2324 -999 -999 -999 -999 -999 -999 -999 -999 -999 -999 -999 -999 -999 -999 -999 -999 -999 -999 -999 -999 -999 -999 -999 -999 -999 -999 -999 -999 -999 -999 -999 -999 -999 -999 -999 -999 -999
 594 589 583 576 569 561 558 555 548 550 535 535 534 540 554 582 600 641 666 692 731 745 790 810 842 847 876 911 937 947 1000 1030 1134 1203 1216 1264 1323 1394 1498 1530 1583 1609 1626 1647 1698 1767 1826 1858 1904 1925 1939 1962 2064 2074 2079 2109 2187 2224 2257 2285 -999 -999 -999 -999 -999 -999 -999 -999 -999 -999 -999 -999 -999 -999 -999 -999 -999 -999 -999 -999 -999 -999 -999 -999 -999 -999 -999 -999 -999 -999 -999 -999 -999 -999 -999 -999 -999 -999
 596 589 585 579 571 565 561 562 554 554 535 533 534 534 553 582 594 639 661 693 750 783 802 817 828 858 871 890 920 945 1001 1032 1101 1175 1231 1253 1321 1403 1461 1552 1565 1608 1622 1668 1683 1723 1794 1809 1870 1880 1924 1982 2006 2047 2051 2111 2130 2179 2212 2266.5 -999 -999 -999 -999 -999 -999 -999 -999 -999 -999 -999 -999 -999 -999 -999 -999 -999 -999 -999 -999 -999 -999 -999 -999 -999 -999 -999 -999 -999 -999 -999 -999 -999 -999 -999 -999 -999 -999
 591 589 584 576 572 569 565 561 559 535 534 532 530 533 549 568 591 634 664 682 733 766 801 807 830 855 882 904 931 960 1004 1034 1103 1169 1187 1247 1326 1393 1466 1482 1539 1553 1598 1614 1654 1673 1735 1790 1847 1866 1892 1903 1918 1992 2045 2053 2109 2147 2212 2248 -999 -999 -999 -999 -999 -999 -999 -999 -999 -999 -999 -999 -999 -999 -999 -999 -999 -999 -999 -999 -999 -999 -999 -999 -999 -999 -999 -999 -999 -999 -999 -999 -999 -999 -999 -999 -999 -999
 -999 586 580.5 575 570.5 566 562 558.5 555 534 533.66666666666674246 533.33333333333337123 533 530 547.5 565 587.5 610 655 703 731 759 791 823 836.33333333333325754 849.66666666666662877 863 906 948 990 1013 1036 1100 1155 1211 1283 1318 1353 1450 1505 1526.3333333333332575 1547.6666666666667425 1569 1598.5 1628 1698 1726.5 1755 1807 1830 1872 1878 1945 1976.5 2008 2019 2072 2130 2182 -999 -999 -999 -999 -999 -999 -999 -999 -999 -999 -999 -999 -999 -999 -999 -999 -999 -999 -999 -999 -999 -999 -999 -999 -999 -999 -999 -999 -999 -999 -999 -999 -999 -999 -999 -999 -999 -999 -999
